0,0,0,0,0,0,0,0,19730,19780,19376,19187,17644,10919,11257,10589,9999,8445,8284,8188,8117,8052,8020,7973,7901,7820,7822,7837,7863,7990,8127,8234,8344,8446,8564,8742,8842,8913,8973,9057,0,0,0,0,0,0,1640,1639,1637,1636,1632,1632,1634,1637,1640,1644,1649,1655,1661,1667,1670,1672,1674,1674,1675,1678,1678,1677,1676,1678,1677,1676,1674,1675,1673,1667,0,0,0,0,0,0,0,0,0,0,0,0,0,0,0,0,0,0,0,2611,2558,2536,0,0,0,0,0,0,2586,0,2772,2817,2899,2949,2959,2960,2964,2969,2979,2998,3029,3046,3060,3073,3044,2504,2484,2478,2471,2460,2442,2415,2358,2308,2285,2270,2258,2250,2244,2240,2238,2241,2237,2241,2247,2254,2261,2268,2274,2277,2276,2272,2268,2264,2272,2196,2199,2147,2207,0,1981,1976,1973,1973,1975,1980,1987,1997,2009,2022,2037,2013,2098,2080,2087,0,2250,0,2178,2160,2248,2255,2204,2234,2230,2197,2194,2199,2180,2183,2185,2179,2186,2189,2191,2193,2194,2196,2197,2197,2198,2199,2200,2202,2204,2207,2221,2224,2227,2229,2230,2229,2228,2224,2219,2206,2199,2192,2188,2186,2191,2200,2216,2236,2260,2287,2315,2343,2371,2398,2424,2445,2460,2467,2465,2455,2441,2426,2413,2403,2399,2400,2406,2417,2433,2449,2466,2483,2499,2515,2530,2545,2562,2580,2600,2622,2645,2671,2698,2727,2764,2812,2865,2879,2885,2842,2840,2833,2821,2809,2795,2780,2760,2745,2733,2726,2722,2732,2771,2799,2822,2831,2845,2857,2866,2870,2873,2876,2859,0,0,0,2180,2178,2176,0,0,0,0,0,0,0,0,0,0,0,0,0,0,0,0,0,0,0,0,0,0,0,0,0,0,0,0,0,0,0,0,0,0,647,647,646,645,645,645,644,644,644,643,643,643,643,643,643,643,643,643,642,642,642,642,642,642,642,642,642,642,642,642,642,642,642,642,642,642,642,642,642,642,642,642,642,642,642,642,642,642,642,642,642,642,642,642,642,642,642,642,642,642,642,642,642,642,642,642,642,642,641,641,641,641,641,641,0,3180,3199,3211,3221,3237,3251,3263,3281,3265,3259,3235,3204,3145,3102,3082,3037,3002,2965,2923,2867,2809,2772,2740,2716,2699,2687,2679,2676,2691,0,0,0,0,0,0,0,0,0,0,0,0,0,0,0,0,0,0,0,0,0,0,0,0,0,0,0,0,0,0,0,0,0,0,0,1914,1904,1890,1871,1858,1843,1830,1818,1807,1794,1782,1766,1700,1718,1683,1671,1661,1651,1639,1629,1619,1611,1604,7477,7491,7501,7493,7472,7438,7396,7345,7285,7220,7151,7084,7025,6976,6936,6908,6882,6857,6831,6801,6773,6747,6722,6684,6668,6653,6634,6614,6586,6554,6521,6484,6448,6412,6377,6343,6310,6279,6250,6225,6204,6189,6180,6179,6183,6190,6197,6202,6205,6206,6205,6201,6195,6184,6169,6148,6122,6092,6060,6026,5990,5952,5910,5860,5801,5732,5656,5576,5496,5421,5352,5288,5229,5173,5120,5066,5011,4952,4887,4819,4748,4677,4610,4547,4492,4442,4396,4358,4324,4292,4263,4235,4207,4178,4148,4117,4085,4053,4019,3982,3942,3904,3867,3832,3801,3772,3744,3717,3689,3662,3636,3612,3592,3575,3560,3547,3533,3519,3505,3490,3475,3460,3445,3432,3419,3408,3397,3387,3375,3378,0,0,0,0,0,0,0,0,0,0,0,0,0,0,0,0,0,0,0,0,0,0,0
0,0,0,0,0,0,20227,20135,19927,19640,19268,18928,19375,14981,12379,11537,10838,9760,8497,8302,8222,8142,8066,8014,7909,7550,7602,7781,7818,7754,0,0,0,0,0,0,0,0,0,0,0,0,1676,1658,1653,1646,1637,1634,1632,1631,1630,1631,1632,1634,1637,1640,1644,1649,1654,1658,1661,1663,1665,1666,1667,1669,1669,1668,1668,1666,1665,1665,1665,1666,1667,1669,1671,1675,1678,1683,1687,1691,0,0,0,0,0,0,0,0,0,0,0,0,0,0,2499,2493,2479,2474,2471,2472,2478,2496,2574,2640,2700,2877,2872,2923,2948,2943,2947,2950,2954,2951,2981,2996,2595,2551,2467,2467,2449,2443,2434,2419,2398,2372,2330,2294,2275,2260,2250,2242,2236,2232,2230,2212,2220,2222,2226,2232,2241,2250,2258,2265,2268,2268,2267,2266,2269,2257,2269,0,1948,1940,1966,1962,1960,1961,1964,1970,1979,1989,2002,2023,2034,2014,2064,2073,2104,2108,2231,2228,2222,2188,2179,2175,2186,2182,2178,2168,2163,2162,2162,2169,2166,2170,2176,2180,2183,2186,2188,2190,2192,2192,2193,2194,2195,2196,2199,2201,2236,2243,2249,2255,2260,2225,2223,2218,2216,2199,2191,2183,2176,2175,2180,2190,2207,2229,2256,2285,2316,2348,2379,2408,2436,2460,2477,2485,2483,2472,2456,2437,2421,2409,2401,2399,2402,2410,2422,2436,2451,2466,2481,2496,2509,2523,2538,2554,2572,2592,2614,2639,2666,2694,2725,2767,2850,2865,2864,2812,2819,2816,2804,2795,2781,2767,2744,2726,2709,2697,2686,2696,2754,2789,2814,2813,2824,2833,2841,2845,2848,2852,2851,0,0,0,2184,2181,2179,2179,0,0,0,0,0,0,0,0,0,0,0,0,0,0,0,0,0,0,0,0,0,0,0,0,0,0,0,0,0,0,0,0,0,647,646,646,645,645,644,644,644,644,643,643,643,643,643,643,642,642,642,642,642,642,642,642,642,642,642,642,642,642,642,642,642,642,642,642,642,642,643,643,643,643,643,643,643,643,642,642,642,642,642,642,642,642,642,642,642,642,642,642,642,642,642,642,642,642,642,642,642,641,641,641,641,641,641,0,0,3235,3238,3224,3244,3249,3252,3243,3247,3247,3222,3189,3107,3054,3044,2988,2953,2918,2875,2812,2777,2742,2712,2690,2674,2663,2657,2655,2678,0,0,0,0,0,0,0,0,0,0,0,0,0,0,0,0,0,0,0,0,0,0,0,0,0,0,0,0,0,0,0,0,0,1953,1938,1923,1907,1891,1873,1858,1843,1830,1817,1804,1792,1780,1765,1687,1692,1679,1667,1657,1647,1635,1625,1615,1607,1599,1589,7519,7554,7560,7544,7509,7464,7405,7338,7263,7185,7111,7048,6996,6956,6927,6901,6877,6852,6823,6796,6769,6745,6720,6706,6691,6672,6647,6617,6581,6542,6501,6459,6419,6381,6345,6310,6277,6247,6220,6198,6182,6174,6173,6179,6189,6198,6206,6210,6213,6212,6210,6204,6193,6178,6157,6132,6103,6072,6039,6005,5969,5929,5882,5825,5757,5680,5599,5518,5440,5368,5301,5239,5180,5124,5068,5012,4953,4889,4821,4750,4680,4612,4549,4492,4439,4393,4352,4316,4283,4254,4226,4199,4172,4144,4114,4084,4051,4017,3979,3936,3898,3861,3827,3796,3769,3743,3718,3692,3666,3641,3618,3598,3581,3565,3551,3537,3522,3507,3491,3475,3459,3443,3428,3415,3402,3391,3380,3369,3359,3349,0,0,0,0,0,0,0,0,0,3251,3258,3256,3296,3329,0,0,0,0,0,0,0,0
0,0,0,0,0,0,20159,20095,19923,19690,19354,19029,18569,18804,13494,12601,11862,10064,9658,8520,8411,8319,8394,9004,7631,7621,0,0,0,0,0,0,0,0,0,0,0,0,1757,1648,1650,1651,1652,1657,1652,1642,1637,1634,1631,1629,1628,1628,1629,1631,1633,1636,1639,1642,1646,1649,1651,1653,1654,1655,1656,1657,1658,1658,1659,1658,1659,1660,1661,1663,1665,1668,1671,1676,1681,1686,1690,1695,1699,1701,0,0,0,0,0,0,0,2538,2534,2508,2481,2476,2483,2478,2467,2461,2455,2452,2452,2463,2449,2633,2776,2807,2839,2861,2862,2897,2902,2902,2909,0,2720,0,2427,2422,2446,2437,2414,2406,2396,2378,2356,2329,2298,2270,2254,2243,2234,2228,2223,2220,2218,2215,2215,2198,2201,2206,2215,2224,2234,2242,2249,2252,2254,2200,2199,2254,2274,0,0,1957,1954,1951,1949,1951,1955,1962,1972,1984,1999,2022,2036,2020,2031,2073,2093,2099,2079,2215,2172,2168,2158,2166,2168,2165,2162,2151,2154,2153,2153,2158,2158,2162,2167,2172,2176,2179,2182,2185,2187,2187,2188,2188,2189,2191,2193,2174,2171,2237,2243,2249,2254,2219,2204,2198,2191,2189,2180,2167,2162,2163,2169,2181,2200,2224,2252,2284,2318,2352,2385,2417,2446,2471,2489,2498,2496,2484,2466,2446,2427,2412,2401,2396,2396,2401,2410,2422,2435,2449,2463,2477,2491,2504,2518,2533,2548,2565,2585,2606,2629,2653,2678,2711,2803,2820,2825,2757,2786,2790,2778,2772,2761,2749,2719,2699,2679,2661,2640,2645,2699,2782,2809,2789,2795,2803,2812,2816,2822,2832,2834,0,2295,2196,2191,2185,2182,2181,0,0,0,0,0,0,0,0,0,0,0,0,0,0,0,0,0,0,0,0,0,0,0,0,0,0,0,0,0,0,0,0,0,0,646,645,645,645,644,644,644,644,643,643,643,643,643,643,642,642,642,642,642,642,642,642,642,642,642,642,642,642,642,642,642,642,642,642,642,643,643,643,643,643,643,643,643,643,643,643,642,642,642,642,642,642,642,642,642,642,642,642,642,642,642,642,642,642,642,642,642,642,641,641,641,641,641,0,3292,3263,3254,3247,3242,3241,3237,3211,3218,0,0,0,3054,2999,3009,2934,2901,2870,2828,2777,2744,2712,2684,2664,2650,2639,2634,2632,0,0,0,0,0,0,0,0,0,0,0,0,0,0,0,0,0,0,0,0,0,0,0,0,0,0,0,0,0,2070,2056,2024,2001,1985,1964,1943,1926,1908,1891,1873,1857,1842,1827,1814,1801,1788,1777,1679,1705,1687,1676,1665,1654,1644,1633,1622,1611,1602,1593,1585,1581,7654,7613,7605,7567,7518,7453,7379,7297,7213,7134,7067,7014,6973,6942,6916,6891,6866,6838,6812,6786,6763,6742,6714,6701,6687,6667,6641,6609,6566,6519,6473,6429,6389,6351,6315,6281,6251,6223,6201,6185,6177,6178,6185,6197,6209,6219,6226,6229,6230,6227,6220,6208,6191,6169,6142,6112,6080,6048,6016,5982,5945,5900,5845,5778,5701,5619,5536,5456,5382,5313,5248,5188,5130,5073,5016,4957,4893,4825,4754,4683,4614,4549,4490,4435,4386,4343,4303,4269,4238,4211,4185,4160,4133,4106,4077,4046,4013,3974,3928,3891,3855,3822,3793,3767,3743,3720,3697,3673,3650,3628,3608,3590,3574,3558,3543,3527,3510,3493,3476,3460,3444,3428,3413,3399,3386,3374,3362,3351,3340,3319,3305,3291,3275,0,0,0,0,3196,3201,3192,3193,3198,3224,3192,0,0,0,0,0,0,0
0,0,0,0,0,0,20123,20038,19893,19698,19441,19121,18767,18571,14598,13810,13200,8096,7898,8067,8032,0,0,0,0,0,0,0,0,0,0,0,0,0,0,0,0,1636,1639,1645,1648,1650,1651,1651,1652,1643,1638,1634,1631,1628,1627,1626,1627,1628,1629,1631,1633,1635,1638,1640,1641,1643,1643,1644,1644,1645,1646,1647,1649,1650,1652,1654,1657,1660,1664,1668,1672,1677,1683,1688,1693,1698,1702,1703,1702,0,0,0,0,0,2551,2537,2514,2477,2475,2468,2468,2462,2452,2444,2436,2429,2423,2435,2421,2361,2144,2105,2070,2075,2039,0,0,0,0,0,0,2208,2219,2232,2242,2418,2384,2375,2365,2342,2317,2285,2261,2236,2225,2217,2212,2208,2205,2203,2202,2202,2203,2207,2176,2180,2186,2195,2204,2212,2220,2198,2198,2189,2235,2237,2273,0,0,1949,1945,1942,1941,1943,1948,1956,1968,1982,1997,2024,2041,2027,2039,2056,2105,2086,2089,2155,2163,2159,2144,2146,2147,2145,2143,2142,2143,2144,2145,2149,2151,2155,2160,2164,2169,2173,2176,2179,2181,2182,2182,2182,2183,2185,2187,2168,2168,2170,2234,2240,2201,2201,2198,2191,2182,2173,2163,2155,2152,2154,2161,2174,2194,2220,2250,2284,2320,2355,2390,2422,2452,2477,2494,2503,2501,2489,2470,2449,2428,2411,2399,2391,2388,2389,2395,2404,2416,2430,2444,2459,2473,2487,2500,2514,2527,2542,2557,2574,2590,2606,2619,2611,2562,2561,2572,2652,2747,2759,2745,2743,2734,2726,2687,2667,2644,2622,2587,2566,2527,2503,2556,2646,2758,2764,2777,2784,2795,2815,0,2472,2225,2212,2198,2190,2184,2182,2184,0,0,0,0,0,0,0,0,0,0,0,0,0,0,0,0,0,0,0,0,0,0,0,0,0,0,0,0,0,0,0,0,0,0,645,645,645,644,644,644,644,644,643,643,643,643,642,642,642,642,642,642,642,642,642,642,642,642,642,642,642,642,642,642,642,642,642,642,643,643,643,643,643,643,643,643,643,643,643,643,642,642,642,642,642,642,642,642,642,642,642,642,642,642,642,642,642,642,642,642,642,642,641,641,641,641,0,3294,3272,3262,3251,3240,3228,3216,3200,3195,3153,0,0,2968,2950,2925,2879,2850,2817,2786,2745,2714,2685,2658,2641,2627,2617,2612,2612,0,0,0,0,0,0,0,0,0,0,0,0,0,0,0,0,0,0,0,0,0,0,0,2359,2343,2345,2342,0,2074,2049,2037,2020,2004,1986,1966,1945,1927,1908,1890,1872,1855,1839,1824,1809,1795,1782,1771,1748,1702,1687,1674,1663,1652,1641,1629,1618,1607,1598,1588,1581,1575,1565,7644,8432,7606,7553,7483,7404,7319,7233,7153,7085,7031,6990,6957,6929,6903,6877,6849,6825,6802,6782,6766,6749,6741,6728,6727,6680,6642,6593,6540,6489,6443,6400,6362,6327,6294,6264,6238,6216,6201,6194,6196,6205,6218,6232,6245,6254,6259,6260,6256,6246,6230,6208,6181,6150,6117,6084,6052,6021,5990,5955,5914,5861,5795,5719,5636,5552,5471,5395,5325,5259,5197,5138,5081,5023,4963,4899,4831,4760,4688,4617,4550,4488,4431,4378,4331,4289,4253,4221,4193,4167,4143,4119,4093,4066,4038,4008,3968,3918,3884,3850,3819,3791,3767,3745,3724,3703,3681,3659,3638,3618,3600,3582,3565,3548,3531,3514,3496,3479,3463,3446,3429,3413,3398,3383,3370,3357,3345,3332,3314,3300,3285,3269,3246,3230,3214,3199,3187,3180,3166,3154,3141,3127,3108,3085,3040,3011,2994,0,0,0
0,0,0,0,0,21083,20052,19964,19834,19672,19473,19250,18976,18490,18378,14797,14292,15333,15171,0,0,0,0,0,0,0,0,0,0,0,0,0,0,0,0,1750,1632,1635,1638,1643,1645,1680,1676,1668,1656,1645,1639,1634,1630,1628,1626,1625,1625,1625,1626,1627,1628,1630,1631,1633,1633,1634,1634,1634,1634,1635,1636,1638,1640,1643,1646,1650,1654,1658,1663,1668,1674,1680,1686,1692,1697,1701,1705,1706,1703,0,0,0,0,0,2545,2528,2483,2475,2470,2459,2454,2447,2437,2427,2417,2406,2394,2373,2380,2316,2166,2039,2027,2021,2019,2013,2012,2013,2016,2018,2031,2036,2038,2050,2065,2084,2340,2336,2328,2316,2285,2243,2222,2195,2189,2185,2183,2182,2182,2183,2183,2184,2189,2192,2195,2191,2190,2182,2183,2185,2170,2178,2195,2198,2201,2208,0,0,0,1943,1938,1935,1935,1937,1943,1952,1965,1981,1998,2027,2045,2063,2045,2058,2101,2078,2153,2133,2149,2141,2133,2132,2131,2131,2131,2131,2133,2135,2137,2141,2144,2148,2153,2157,2162,2166,2169,2172,2174,2175,2176,2176,2177,2178,2181,2163,2164,2167,2172,2197,2197,2196,2190,2183,2172,2163,2152,2145,2143,2146,2155,2169,2190,2217,2249,2284,2321,2358,2392,2425,2453,2477,2493,2501,2498,2487,2468,2446,2425,2407,2392,2382,2376,2375,2377,2384,2394,2407,2422,2437,2453,2468,2482,2495,2508,2519,2531,2543,2553,2559,2563,2558,2522,2516,2520,2550,2487,0,2695,2700,2693,2705,2650,2631,2586,2524,2522,2509,2485,2461,2465,2634,2610,2714,2739,2750,2770,2773,2476,2292,2233,2220,2205,2193,2185,2182,2180,0,0,0,0,0,0,0,0,0,0,0,0,0,0,0,0,0,0,0,0,0,0,0,0,0,0,0,0,0,0,0,0,0,0,645,645,645,644,644,644,644,644,643,643,643,643,642,642,642,642,642,642,642,642,642,642,642,642,642,642,642,642,642,642,642,642,642,642,643,643,643,643,643,643,643,643,643,643,643,643,642,642,642,642,642,642,642,642,642,642,642,642,642,642,642,642,642,642,642,642,642,642,642,641,641,0,0,0,3280,3264,3251,3238,3224,3210,3195,3187,3123,3052,0,2888,2909,2831,2839,2809,2778,2754,2720,2692,2665,2637,2621,2608,2598,2594,2596,0,0,0,0,0,0,0,0,0,0,0,0,0,0,0,0,0,0,0,0,0,0,2349,2330,2327,2337,2340,2101,2066,2050,2037,2021,2004,1986,1966,1945,1926,1906,1887,1869,1852,1835,1820,1805,1791,1777,1756,1718,1701,1686,1673,1661,1649,1638,1626,1615,1604,1591,1583,1575,1567,1563,1559,8530,8403,7567,7492,7414,7330,7247,7170,7105,7053,7011,6977,6946,6918,6891,6861,6841,6821,6805,6796,6786,6782,6780,6761,6729,6678,6623,6564,6509,6459,6416,6377,6343,6313,6285,6261,6242,6230,6224,6227,6238,6253,6269,6284,6295,6300,6301,6294,6280,6257,6228,6192,6155,6117,6081,6048,6018,5990,5959,5921,5872,5809,5734,5651,5567,5485,5409,5338,5271,5209,5149,5091,5032,4972,4908,4839,4768,4695,4624,4554,4489,4429,4373,4323,4278,4239,4205,4176,4150,4126,4103,4079,4054,4029,4004,3979,3906,3877,3847,3817,3791,3767,3746,3727,3708,3688,3667,3647,3627,3608,3590,3572,3553,3535,3517,3500,3482,3466,3449,3431,3414,3397,3381,3366,3352,3339,3326,3309,3295,3280,3263,3244,3227,3210,3195,3181,3169,3154,3140,3126,3110,3092,3071,3042,3022,3008,2997,2991,2975
0,0,0,0,0,0,19936,19846,19726,19587,19431,19265,19076,18752,18378,18492,18316,18417,15284,15167,0,0,0,0,0,0,0,0,0,0,0,0,0,0,0,1746,1734,1634,1636,1640,1676,1673,1669,1662,1653,1644,1638,1634,1630,1627,1626,1624,1624,1624,1624,1625,1625,1626,1627,1627,1628,1627,1627,1627,1627,1628,1629,1631,1634,1637,1642,1646,1652,1657,1664,1670,1677,1684,1691,1697,1702,1706,1709,1710,0,0,0,0,0,0,0,2523,2487,2474,2465,2450,2442,2433,2423,2412,2401,2389,2374,2364,0,0,2026,2021,2016,2012,2010,2007,2007,2009,2011,2014,2021,2028,2035,2044,2054,2064,2065,2083,2082,2095,2107,2143,2136,2149,2149,2149,2151,2153,2156,2159,2161,2164,2169,2173,2173,2171,2170,2161,2157,2153,2147,2162,2155,2159,2161,2174,2134,2137,1936,1940,1934,1931,1931,1934,1940,1950,1964,1980,1998,2029,2048,2064,2080,2060,2070,2074,2068,2103,2115,2109,2115,2116,2116,2116,2118,2120,2123,2126,2129,2133,2137,2141,2145,2149,2153,2157,2160,2163,2166,2168,2168,2169,2169,2171,2174,2157,2159,2163,2168,2191,2190,2188,2181,2173,2162,2152,2142,2136,2135,2140,2150,2166,2188,2216,2248,2284,2321,2358,2392,2423,2450,2471,2486,2492,2489,2478,2459,2438,2417,2399,2383,2371,2363,2358,2357,2361,2369,2381,2397,2413,2431,2448,2464,2477,2489,2498,2507,2513,2517,2516,2513,2506,2483,2477,2479,2495,2470,2468,2484,2494,2471,2479,2574,2538,2500,2481,2478,2468,2453,2441,2445,2462,2480,2643,2713,2730,2713,2411,2400,2356,2248,2229,2213,2195,2185,2181,2177,0,0,0,0,0,0,0,0,0,0,0,0,0,0,0,0,0,0,0,0,0,0,0,0,0,0,0,0,0,0,0,0,0,647,645,645,645,644,644,644,644,644,644,643,643,643,642,642,642,642,642,642,642,642,642,642,642,642,642,642,642,642,642,642,642,642,642,642,642,643,643,643,643,643,643,643,643,643,643,642,642,642,642,642,642,642,642,642,643,642,642,642,642,642,642,642,642,642,642,642,642,642,642,642,641,642,0,0,3284,3267,3248,3235,3221,3207,3192,3160,0,0,0,0,0,0,2795,2787,2758,2733,2705,2679,2652,2620,2606,2594,2583,2581,2585,0,0,0,0,0,0,0,0,0,0,0,0,0,0,0,0,0,0,0,0,0,2337,2319,2314,2308,2329,0,2087,2064,2049,2035,2019,2001,1983,1963,1943,1923,1903,1884,1866,1849,1832,1817,1801,1786,1772,1751,1717,1701,1686,1673,1660,1647,1635,1623,1611,1599,1587,1577,1570,1563,1559,1555,8569,7622,7559,7479,7406,7330,7255,7187,7128,7079,7038,7002,6969,6939,6910,6877,6864,6847,6835,6830,6829,6828,6818,6798,6763,6709,6649,6585,6526,6475,6431,6394,6363,6335,6311,6291,6276,6266,6264,6269,6281,6297,6315,6331,6343,6348,6347,6336,6316,6286,6248,6201,6155,6111,6071,6037,6008,5982,5955,5921,5876,5817,5745,5665,5582,5501,5425,5353,5287,5223,5163,5103,5043,4982,4917,4849,4778,4706,4634,4564,4496,4432,4373,4319,4271,4229,4193,4163,4136,4111,4088,4064,4041,4017,3993,3968,3902,3875,3846,3819,3793,3770,3749,3730,3712,3693,3674,3654,3635,3616,3596,3577,3558,3539,3520,3502,3485,3468,3451,3433,3415,3397,3380,3364,3349,3335,3321,3305,3291,3275,3259,3241,3224,3207,3190,3175,3160,3144,3129,3113,3097,3079,3060,3037,3020,3006,2996,2989,2984
0,0,0,0,0,19727,19777,19679,19558,19431,19303,19182,19075,18875,18627,18701,18591,18871,18876,0,0,0,0,0,0,0,0,0,0,0,0,0,0,0,0,0,0,1632,1634,1637,1667,1665,1661,1655,1648,1641,1637,1633,1630,1627,1625,1624,1623,1623,1623,1623,1623,1624,1624,1624,1624,1623,1623,1622,1622,1623,1625,1627,1631,1635,1640,1645,1652,1659,1666,1674,1681,1689,1696,1702,1707,1711,1714,1715,0,0,0,0,0,0,2528,2496,2481,2472,2466,2439,2431,2422,2412,2401,2390,2378,2364,2182,2127,2013,2009,2010,2006,2002,2001,2000,2001,2003,2006,2009,2015,2020,2025,2032,2039,2046,2047,2052,2057,2060,2078,2087,2099,2107,2110,2113,2118,2122,2127,2132,2137,2140,2141,2145,2149,2150,2148,2141,2136,2128,2123,2153,2072,2118,2121,2148,2138,2132,0,1933,1933,1930,1930,1933,1940,1950,1964,1980,2016,2036,2054,2063,2052,2059,2066,2086,2085,2090,2073,2094,2097,2098,2099,2101,2104,2107,2111,2115,2119,2123,2127,2131,2135,2138,2141,2145,2148,2152,2156,2157,2156,2158,2161,2163,2166,2150,2172,2156,2194,2182,2181,2177,2169,2161,2151,2142,2132,2128,2128,2134,2145,2162,2185,2214,2247,2283,2320,2356,2389,2418,2443,2462,2474,2479,2476,2464,2447,2427,2406,2388,2372,2358,2348,2340,2336,2336,2343,2354,2370,2388,2407,2426,2444,2459,2470,2478,2484,2486,2484,2475,2467,2458,2443,2438,2439,2449,2440,2442,2453,2460,2463,2460,2494,2460,2458,2447,2442,2435,2427,2420,2424,2436,2448,2442,2425,2420,2407,2400,2384,2330,2271,2244,2224,2198,2185,2180,2176,0,0,0,0,0,0,0,0,0,0,0,0,0,0,0,0,0,0,0,0,0,0,0,0,0,0,0,0,0,0,0,0,0,647,646,645,645,645,644,644,644,644,644,643,643,643,642,642,642,642,642,642,642,642,642,642,642,642,642,642,642,642,642,642,642,642,642,642,642,642,643,643,643,643,643,643,643,643,643,642,642,642,642,642,642,642,642,643,643,643,642,642,642,642,642,642,642,642,642,642,642,642,643,643,643,642,0,0,0,0,0,0,0,0,0,0,0,0,0,0,0,0,2103,2111,2110,2109,2108,2107,2105,2607,2596,2584,2572,2572,2558,0,0,0,0,0,0,0,0,0,0,0,0,0,0,0,0,0,0,0,2308,2326,2298,2309,2332,2330,2124,2104,2078,2061,2046,2031,2014,1997,1979,1959,1938,1918,1899,1881,1863,1847,1830,1814,1799,1783,1766,1743,1720,1702,1687,1672,1658,1645,1632,1620,1607,1594,1581,1572,1564,1557,1553,1549,0,8313,7533,7449,7381,7319,7259,7202,7152,7108,7069,7033,6998,6967,6937,6897,6895,6881,6871,6867,6866,6863,6852,6828,6786,6728,6663,6596,6536,6485,6443,6408,6381,6357,6338,6323,6312,6307,6307,6314,6327,6344,6362,6378,6389,6393,6388,6373,6346,6309,6262,6202,6148,6099,6055,6019,5990,5966,5942,5913,5873,5821,5753,5678,5598,5519,5443,5372,5305,5241,5179,5118,5056,4993,4927,4860,4791,4720,4649,4578,4509,4442,4380,4322,4271,4226,4187,4154,4126,4100,4076,4052,4028,4003,3978,3941,3904,3877,3850,3822,3797,3774,3753,3735,3717,3699,3681,3661,3642,3622,3602,3582,3562,3542,3523,3504,3487,3470,3453,3434,3416,3397,3379,3362,3346,3331,3317,3302,3288,3272,3256,3239,3222,3205,3187,3170,3154,3137,3120,3103,3087,3070,3052,3033,3017,3005,2995,2988,2984
0,0,0,0,0,19586,19578,19462,19331,19203,19091,19005,18986,18890,18748,18526,18742,18947,0,0,0,0,0,0,0,0,0,0,0,0,0,0,0,0,0,1623,1625,1629,1659,1659,1658,1655,1652,1648,1642,1637,1634,1631,1628,1627,1625,1624,1623,1623,1623,1623,1623,1623,1623,1622,1622,1621,1621,1620,1620,1622,1623,1626,1630,1635,1640,1647,1654,1662,1670,1679,1687,1695,1702,1708,1712,1715,1718,1719,1730,0,0,0,0,0,2512,2486,2477,2465,2451,2430,2421,2412,2403,2393,2382,2371,2358,2132,1995,2004,2000,1998,1995,1992,1991,1991,1993,1996,1999,2003,2008,2012,2016,2021,2025,2030,2032,2035,2039,2042,2053,2059,2066,2073,2077,2081,2086,2093,2099,2105,2111,2116,2117,2119,2124,2126,2125,2119,2109,2103,2067,2047,2045,2038,2031,2132,0,1954,1946,1936,1931,1928,1927,1929,1941,1951,1964,1980,1999,2017,2034,2050,2059,2066,2072,2074,2073,2075,2070,2076,2079,2080,2082,2085,2088,2093,2097,2102,2106,2111,2114,2118,2121,2123,2126,2127,2129,2133,2139,2143,2143,2147,2149,2152,2155,2158,2163,2167,2167,2168,2166,2160,2154,2145,2137,2125,2121,2118,2120,2127,2140,2157,2180,2209,2242,2278,2315,2351,2382,2410,2433,2450,2460,2464,2460,2449,2433,2414,2394,2375,2359,2344,2331,2321,2314,2311,2316,2327,2342,2361,2382,2403,2425,2442,2454,2461,2464,2463,2456,2438,2425,2415,2404,2401,2403,2411,2411,2416,2425,2432,2432,2429,2435,2427,2426,2421,2417,2413,2408,2406,2410,2418,2426,2423,2415,2412,2402,2394,2375,2335,2292,2261,2237,2201,2184,2180,2174,0,0,0,0,0,0,0,0,0,0,0,0,0,0,0,0,0,0,0,0,0,0,0,0,0,0,0,0,0,0,0,0,0,647,646,645,645,645,644,644,644,644,644,643,643,643,642,642,642,642,642,642,642,642,642,642,642,642,642,642,642,642,642,642,642,642,642,642,642,642,642,643,643,643,643,643,643,642,642,642,642,642,642,642,642,642,642,643,643,643,642,642,642,642,642,642,642,642,642,643,643,643,643,643,644,643,643,0,0,0,0,0,0,0,0,0,0,0,0,0,0,2097,2105,2105,2104,2103,2102,2101,2099,2094,2093,2093,2556,2401,0,0,0,0,0,0,0,0,0,0,0,0,0,0,0,0,0,0,2269,2210,2251,2218,2254,0,2137,2129,2106,2088,2070,2054,2039,2024,2008,1991,1972,1953,1933,1913,1895,1877,1861,1845,1829,1814,1798,1781,1764,1743,1722,1704,1687,1671,1657,1643,1630,1616,1602,1589,1575,1565,1556,1550,1545,1542,1535,7532,7495,7399,7349,7305,7261,7218,7178,7140,7103,7067,7033,7000,6970,6918,6936,6923,6914,6908,6902,6894,6876,6844,6795,6731,6663,6595,6536,6487,6448,6419,6397,6378,6364,6353,6347,6344,6347,6355,6368,6384,6400,6414,6422,6423,6414,6394,6362,6318,6266,6194,6133,6080,6034,5997,5969,5946,5926,5901,5867,5821,5758,5688,5613,5537,5463,5392,5324,5260,5197,5133,5069,5004,4938,4871,4804,4736,4667,4597,4526,4457,4392,4331,4276,4229,4188,4152,4122,4095,4070,4046,4021,3996,3971,3939,3908,3881,3854,3828,3803,3780,3760,3741,3724,3707,3688,3670,3650,3630,3609,3587,3566,3545,3525,3506,3488,3471,3453,3434,3415,3396,3378,3361,3345,3330,3316,3301,3286,3271,3255,3238,3221,3204,3186,3168,3151,3133,3115,3098,3081,3064,3047,3031,3016,3004,2995,2989,2985
0,0,0,0,0,19359,19339,19200,19051,18914,18808,18751,18834,18833,18781,18674,18666,0,0,0,0,0,0,0,0,0,0,0,0,0,0,0,0,0,1623,1623,1650,1650,1650,1649,1648,1646,1643,1639,1636,1632,1630,1628,1626,1625,1624,1624,1623,1623,1623,1622,1622,1622,1622,1622,1621,1621,1620,1620,1621,1622,1624,1628,1632,1637,1643,1650,1658,1667,1676,1686,1695,1703,1709,1714,1716,1718,1720,1723,0,0,0,0,0,2518,2498,2476,2468,2452,2436,2421,2412,2403,2395,2386,2377,2367,2342,2103,1999,1994,1990,1987,1985,1983,1983,1984,1986,1989,1993,1997,2001,2005,2008,2011,2015,2018,2019,2021,2024,2026,2032,2036,2041,2046,2049,2054,2059,2066,2072,2079,2085,2090,2092,2093,2095,2100,2100,2094,2083,2075,2056,2017,2014,2009,2005,2010,1986,1970,1956,1946,1940,1937,1936,1938,1942,1951,1963,1978,1995,2012,2026,2038,2046,2051,2054,2056,2056,2057,2054,2057,2059,2061,2063,2067,2071,2075,2080,2085,2089,2093,2096,2099,2102,2104,2106,2108,2110,2112,2114,2118,2128,2128,2132,2136,2139,2142,2147,2149,2150,2147,2143,2139,2133,2126,2119,2111,2108,2107,2111,2119,2132,2149,2172,2201,2234,2270,2307,2342,2372,2398,2419,2435,2444,2448,2444,2433,2417,2399,2380,2361,2344,2329,2314,2301,2290,2283,2289,2299,2314,2334,2357,2381,2408,2427,2440,2447,2449,2445,2433,2404,2388,2377,2369,2368,2372,2380,2385,2393,2403,2410,2412,2412,2412,2409,2408,2405,2403,2401,2400,2401,2405,2411,2415,2411,2409,2410,2404,2396,2379,2349,2317,2281,2255,0,2179,2176,0,0,0,0,0,0,0,0,0,0,0,0,0,0,0,0,0,0,0,0,0,0,0,0,0,0,0,0,0,0,0,0,648,647,647,646,646,645,645,644,644,644,644,644,643,643,643,642,642,642,642,642,642,642,642,642,643,643,643,643,643,643,643,642,642,642,642,642,642,642,642,642,642,642,643,643,642,642,642,642,642,642,642,642,642,642,642,642,643,643,642,642,642,642,642,642,642,642,642,643,643,643,643,644,644,644,645,644,0,0,0,0,0,0,0,0,0,0,0,0,2051,2070,2092,2098,2098,2097,2096,2095,2094,2092,2089,2088,2087,0,0,0,0,0,0,0,0,0,0,0,0,0,0,0,0,0,0,2196,2198,2201,2202,2203,2202,0,2121,2122,2111,2093,2076,2060,2045,2031,2016,2000,1983,1965,1946,1926,1908,1890,1873,1858,1843,1828,1813,1797,1781,1763,1743,1723,1705,1687,1670,1656,1641,1627,1613,1598,1583,1568,1557,1549,1542,1537,1534,1530,7093,7388,7345,7314,7292,7267,7238,7207,7174,7139,7104,7070,7038,7009,6933,6984,6971,6960,6949,6936,6918,6890,6848,6788,6718,6649,6580,6526,6482,6449,6426,6412,6398,6387,6380,6375,6374,6377,6384,6395,6407,6420,6430,6434,6430,6416,6392,6357,6311,6258,6128,6108,6057,6000,5966,5943,5922,5903,5886,5860,5819,5759,5697,5627,5554,5481,5411,5344,5278,5213,5148,5082,5015,4948,4882,4817,4751,4685,4616,4546,4475,4407,4344,4287,4237,4194,4157,4125,4097,4072,4047,4022,3997,3972,3943,3914,3888,3862,3836,3811,3789,3769,3751,3733,3716,3698,3679,3659,3638,3616,3593,3570,3547,3526,3506,3488,3470,3452,3433,3414,3395,3377,3360,3344,3330,3315,3301,3286,3271,3256,3239,3222,3205,3187,3169,3151,3133,3114,3095,3078,3061,3045,3030,3017,3005,2996,2990,2986
0,0,0,0,0,19198,19078,18909,18737,18587,18477,18439,18653,18766,18796,20138,0,0,0,0,0,0,0,0,0,0,0,0,0,0,1627,1627,1627,1628,1630,1640,1641,1641,1640,1640,1638,1636,1634,1631,1629,1627,1625,1624,1624,1623,1623,1623,1623,1623,1622,1622,1622,1622,1622,1622,1621,1621,1621,1621,1622,1624,1627,1630,1635,1641,1648,1655,1664,1673,1683,1693,1702,1710,1716,1720,1719,1724,1726,1725,0,0,0,0,0,2506,2485,2460,2454,2434,2422,2409,2400,2393,2386,2379,2371,2352,2361,2153,1986,1984,1981,1978,1976,1975,1975,1977,1979,1983,1987,1991,1995,1998,2001,2003,2006,2008,2009,2011,2012,2013,2017,2019,2022,2025,2028,2032,2036,2042,2048,2054,2060,2064,2065,2065,2064,2074,2082,2066,2049,2031,1993,1984,1981,1979,1976,1974,1969,1959,1950,1943,1938,1936,1935,1937,1941,1949,1960,1973,1987,2001,2014,2024,2030,2034,2036,2036,2036,2036,2035,2037,2039,2041,2043,2047,2051,2055,2059,2063,2067,2070,2072,2075,2077,2079,2082,2084,2088,2092,2096,2101,2107,2112,2117,2120,2122,2124,2128,2128,2127,2121,2118,2113,2108,2103,2098,2093,2092,2094,2098,2107,2120,2137,2160,2189,2222,2258,2295,2329,2358,2383,2403,2417,2426,2430,2427,2417,2401,2383,2365,2346,2329,2313,2295,2278,2264,2251,2258,2269,2286,2307,2333,2360,2393,2416,2431,2438,2439,2435,2414,2371,2356,2345,2340,2340,2346,2355,2364,2374,2385,2393,2398,2399,2400,2399,2399,2398,2398,2399,2401,2404,2410,2413,2415,2407,2410,2414,2411,2407,2392,2369,2345,2298,2266,0,0,0,0,0,0,0,0,0,0,0,0,0,0,0,0,0,0,0,0,0,0,0,0,0,0,0,0,0,0,0,0,0,0,647,647,647,646,646,645,645,645,644,644,644,644,643,643,643,643,642,642,642,642,642,642,642,642,643,643,643,643,643,643,643,643,643,643,642,642,642,642,642,642,642,642,642,642,642,642,642,642,642,642,642,642,642,642,642,642,642,643,643,642,642,642,642,642,642,642,642,642,643,643,643,644,644,644,645,645,644,0,0,0,0,0,0,0,0,0,0,0,0,2092,2092,2083,2092,2091,2090,2089,2087,2086,2084,2082,2082,2082,2083,0,0,2558,2548,2541,2536,0,0,0,0,0,0,0,0,0,0,2193,2193,2192,2193,2191,2187,2196,2136,2116,2110,2097,2080,2065,2050,2036,2022,2007,1992,1976,1958,1939,1920,1902,1885,1869,1854,1840,1826,1812,1796,1780,1763,1744,1724,1706,1686,1670,1655,1641,1625,1610,1594,1577,1560,1549,1540,1534,1529,1526,1523,0,7186,7243,7289,7290,7280,7264,7240,7210,7176,7141,7108,7078,7051,6825,7038,7021,7004,6985,6963,6935,6895,6843,6771,6694,6624,6556,6508,6472,6446,6432,6428,6418,6409,6402,6397,6394,6393,6397,6404,6411,6418,6422,6420,6410,6392,6364,6326,6278,6223,6153,6085,6032,5984,5948,5922,5907,5891,5878,5853,5818,5759,5703,5637,5568,5497,5427,5360,5293,5227,5160,5092,5024,4956,4891,4827,4764,4700,4633,4564,4493,4424,4359,4300,4248,4204,4167,4134,4106,4080,4055,4030,4005,3979,3951,3924,3898,3872,3846,3822,3800,3780,3762,3745,3727,3709,3690,3669,3647,3623,3598,3574,3550,3527,3506,3486,3467,3449,3430,3412,3393,3376,3360,3345,3330,3316,3302,3287,3272,3257,3241,3224,3207,3190,3172,3153,3134,3115,3096,3078,3062,3046,3032,3019,3008,2999,2993,2989
0,0,0,0,0,18986,18825,18623,18424,18255,18129,18044,19120,19790,0,0,0,0,0,0,0,0,0,0,0,0,0,0,0,1628,1627,1625,1625,1624,1625,1631,1632,1632,1631,1631,1629,1628,1626,1624,1623,1621,1621,1621,1621,1621,1621,1622,1622,1622,1622,1622,1622,1622,1622,1622,1622,1622,1622,1623,1624,1626,1630,1634,1639,1645,1652,1661,1670,1680,1691,1701,1710,1717,1723,1726,1728,1734,1735,0,0,0,0,0,0,0,2468,2443,2435,2413,2405,2394,2387,2381,2375,2370,2366,0,2234,0,1978,1977,1973,1971,1969,1969,1969,1971,1974,1977,1981,1985,1989,1992,1994,1997,1999,2001,2001,2002,2002,2003,2005,2005,2007,2008,2010,2012,2015,2020,2025,2030,2034,2037,2036,2034,2030,2035,2011,1945,1940,1946,1950,1947,1947,1952,1954,1951,1949,1944,1939,1935,1932,1930,1930,1932,1936,1943,1952,1963,1975,1987,1997,2005,2010,2013,2015,2015,2015,2015,2014,2016,2017,2019,2022,2024,2028,2031,2034,2037,2039,2041,2043,2045,2048,2051,2054,2059,2064,2070,2076,2083,2089,2095,2098,2100,2101,2099,2103,2101,2097,2090,2086,2083,2079,2076,2074,2072,2074,2077,2083,2092,2104,2120,2142,2172,2205,2242,2280,2313,2342,2365,2383,2397,2406,2411,2409,2400,2384,2367,2349,2331,2313,2296,2275,2255,2236,2213,2224,2237,2256,2280,2309,2339,2382,2409,2427,2435,2437,2434,2397,2337,2330,2321,2318,2320,2326,2337,2348,2360,2372,2381,2389,2392,2394,2397,2398,2400,2402,2406,2410,2416,2424,2425,2424,2407,2415,2426,2426,2427,2413,2395,2377,2337,0,0,0,0,0,0,0,0,0,0,0,0,0,0,0,0,0,0,0,0,0,0,0,0,0,0,0,0,0,0,0,0,0,0,0,647,647,647,646,646,645,645,644,644,644,644,644,643,643,643,643,642,642,642,642,642,642,642,643,643,643,643,643,643,643,643,643,643,643,643,642,642,642,642,642,642,642,642,642,642,642,642,642,642,642,642,642,642,642,642,642,643,643,643,643,642,642,642,642,642,642,642,642,643,643,643,644,644,645,645,645,646,0,0,0,0,0,0,0,0,2109,2111,2113,2093,2091,2090,2079,2079,2079,2084,2083,2081,2079,2076,2075,2074,2075,2081,0,2587,2573,2565,2557,2546,0,0,0,0,0,0,0,0,0,2193,2189,2187,2185,2182,2177,2190,2171,2131,2111,2100,2085,2069,2054,2040,2026,2012,1999,1984,1968,1951,1933,1914,1897,1880,1865,1850,1837,1823,1809,1794,1779,1762,1743,1724,1706,1687,1671,1655,1641,1625,1609,1591,1570,1551,1540,1531,1525,1521,1518,1516,0,7179,7222,7288,7306,7306,7296,7275,7244,7209,7173,7140,7111,7087,6812,7076,7056,7034,7009,6979,6941,6892,6832,6747,6663,6595,6526,6486,6458,6441,6438,6448,6440,6431,6422,6413,6405,6399,6396,6396,6397,6397,6394,6385,6370,6347,6317,6278,6232,6179,6117,6057,6007,5963,5930,5908,5892,5882,5872,5852,5822,5767,5709,5646,5579,5509,5439,5371,5304,5237,5169,5100,5030,4962,4897,4834,4773,4711,4647,4579,4509,4439,4374,4314,4263,4218,4181,4148,4120,4094,4069,4044,4019,3992,3965,3937,3911,3884,3859,3834,3812,3792,3773,3756,3738,3720,3700,3678,3654,3629,3603,3577,3552,3528,3505,3484,3464,3445,3426,3408,3391,3375,3360,3345,3331,3317,3303,3289,3273,3258,3242,3226,3209,3192,3174,3155,3136,3117,3098,3080,3064,3049,3035,3023,3013,3004,2998,2994
0,0,0,0,19504,18810,18607,18373,18150,17965,17823,17740,18932,0,0,0,0,0,0,0,0,0,0,0,0,0,0,0,0,1626,1625,1624,1622,1622,1622,1624,1625,1624,1624,1623,1622,1621,1619,1618,1617,1617,1617,1617,1618,1619,1620,1620,1621,1621,1621,1622,1622,1622,1622,1622,1622,1623,1623,1624,1626,1629,1632,1637,1643,1649,1657,1666,1676,1687,1698,1708,1717,1724,1729,1732,1738,1739,0,0,0,0,0,0,0,0,2456,2427,2402,2394,2386,2378,2372,2368,2363,2359,2347,0,0,0,1974,1972,1969,1966,1964,1964,1964,1966,1969,1972,1976,1980,1983,1986,1988,1990,1992,1993,1994,1994,1993,1993,1994,1993,1993,1993,1993,1994,1994,1997,2001,2005,2008,2008,2006,2001,1994,1976,1940,1927,1919,1918,1919,1918,1919,1924,1927,1928,1929,1927,1925,1923,1922,1921,1921,1923,1926,1932,1939,1949,1959,1969,1978,1984,1989,1991,1992,1993,1993,1993,1993,1994,1995,1996,1998,2000,2002,2004,2005,2007,2008,2009,2011,2014,2017,2022,2027,2033,2040,2048,2057,2064,2071,2076,2078,2077,2075,2069,2073,2069,2065,2053,2050,2048,2047,2046,2047,2049,2053,2058,2064,2073,2084,2098,2119,2152,2184,2222,2263,2296,2324,2346,2363,2377,2386,2392,2393,2384,2369,2353,2335,2318,2300,2284,2259,2235,2209,2169,2187,2203,2225,2252,2286,2318,2358,2407,2427,2435,2437,2436,2397,2323,2317,2306,2304,2306,2313,2324,2337,2349,2363,2373,2384,2388,2392,2399,2404,2408,2413,2420,2427,2437,2448,2445,2440,0,0,2489,2498,2481,2436,2420,2404,0,0,0,0,0,0,0,0,0,0,0,0,0,0,0,0,0,0,0,0,0,0,0,0,0,0,0,0,0,0,0,0,0,0,0,0,647,647,646,646,645,645,645,644,644,644,644,644,643,643,643,643,642,642,642,642,642,642,643,643,643,643,643,643,643,643,643,643,643,643,643,643,642,642,642,642,642,642,642,642,642,642,642,642,642,642,642,642,642,642,643,643,643,643,643,643,642,642,642,642,642,642,642,642,643,643,643,644,644,645,645,645,645,0,0,2034,2047,2053,2056,0,2104,2109,2111,2089,2091,2090,2089,2077,2076,2075,2080,2078,2075,2072,2070,2067,2067,2067,0,2624,2607,2586,2576,2566,2558,2545,0,0,0,0,0,0,0,0,0,2184,2180,2200,2189,2184,2160,2145,2121,2103,2089,2074,2058,2044,2030,2016,2003,1990,1976,1961,1944,1927,1909,1892,1875,1860,1846,1832,1819,1805,1791,1776,1760,1742,1723,1705,1687,1671,1656,1641,1625,1609,1585,1574,1541,1531,1523,1517,1513,1511,1509,1508,7227,7430,7280,7337,7338,7328,7305,7273,7234,7195,7161,7133,7111,7142,7088,7065,7040,7010,7619,7568,6879,6816,6718,6630,6568,6495,6464,6444,6434,6444,6472,6465,6453,6439,6424,6408,6395,6385,6377,6371,6363,6352,6336,6315,6290,6259,6222,6179,6132,6076,6025,5981,5943,5916,5899,5889,5883,5874,5855,5826,5785,5721,5658,5589,5518,5447,5378,5310,5242,5174,5104,5034,4966,4900,4838,4778,4718,4656,4590,4521,4453,4388,4329,4277,4234,4197,4165,4137,4111,4087,4061,4035,4008,3980,3952,3925,3898,3871,3846,3823,3802,3783,3765,3747,3728,3707,3685,3660,3634,3607,3580,3554,3529,3505,3482,3461,3442,3423,3406,3389,3374,3360,3346,3332,3318,3304,3289,3274,3258,3242,3226,3209,3192,3174,3156,3137,3118,3100,3083,3067,3053,3041,3029,3019,3011,3005,3001
0,0,0,0,18856,18655,18442,18182,17941,17749,17596,17484,0,0,0,0,0,0,0,0,0,0,0,0,0,0,0,0,0,1623,1624,1622,1621,1618,1618,1619,1618,1618,1617,1617,1616,1615,1614,1613,1613,1613,1613,1614,1615,1616,1618,1619,1620,1620,1621,1621,1621,1621,1622,1622,1623,1623,1624,1626,1628,1631,1635,1639,1645,1652,1661,1670,1681,1692,1703,1713,1722,1728,1733,1736,1744,1746,1749,0,0,0,0,0,0,0,0,2373,2376,2374,2373,2365,2364,2362,2358,2344,2339,0,0,0,1972,1970,1966,1963,1961,1960,1961,1962,1965,1968,1971,1975,1977,1980,1981,1984,1984,1985,1985,1984,1981,1982,1982,1979,1979,1977,1975,1974,1971,1972,1975,1978,1979,1978,1974,1968,1959,1933,1918,1902,1895,1893,1893,1892,1894,1898,1902,1904,1907,1907,1907,1907,1906,1906,1906,1908,1911,1916,1923,1931,1940,1948,1956,1962,1965,1968,1969,1970,1970,1970,1970,1970,1970,1971,1972,1972,1973,1974,1975,1975,1976,1978,1980,1984,1988,1994,2001,2009,2017,2027,2038,2046,2052,2055,2055,2051,2046,2034,2075,2071,2063,2013,2011,2011,2012,2015,2019,2024,2031,2037,2043,2050,2059,2071,2090,2129,2160,2202,2249,2281,2309,2330,2345,2359,2368,2377,2381,2373,2356,2342,2326,2309,2302,0,2046,2064,2083,2119,2149,2169,2194,2225,2267,2292,0,2370,2430,2437,2420,2420,2405,2291,2332,2296,2296,2299,2306,2317,2330,2342,2358,2367,2371,2375,2379,2405,2413,2420,2428,2438,2449,2464,2479,2469,2509,2724,2738,2717,2548,2582,2498,2464,2477,0,0,0,0,0,0,0,0,0,0,0,0,0,0,0,0,0,0,0,574,0,0,0,0,0,0,0,0,0,0,0,0,0,0,0,0,647,646,646,645,645,645,644,644,644,644,643,643,643,643,643,643,643,642,642,642,642,643,643,643,643,643,643,643,643,643,643,643,643,643,643,643,643,643,642,642,642,642,642,642,642,642,642,642,642,642,642,642,642,643,643,643,643,643,643,643,643,642,642,642,642,642,642,642,643,643,643,644,644,644,645,645,645,0,0,2034,2048,2060,2060,2070,2081,2092,2096,2091,2088,2079,2078,2077,2075,2073,2078,2075,2072,2068,2064,2061,2060,2061,0,2628,2615,2599,2587,2576,2565,0,0,0,0,0,0,0,0,2188,2181,2186,2188,2178,2173,2156,2142,2127,2108,2091,2077,2062,2048,2033,2020,2007,1994,1982,1968,1953,1937,1921,1903,1886,1870,1855,1841,1827,1814,1801,1787,1772,1756,1739,1721,1704,1686,1671,1656,1641,1626,1609,1593,1546,1533,1523,1515,1510,1506,1504,1503,1506,7246,7431,7395,7362,7360,7349,7325,7289,7248,7206,7169,7138,7113,7117,7076,7050,7021,7632,7603,7560,7499,7417,6408,6604,6555,6349,6375,6393,6410,6447,6504,6493,6475,6453,6431,6408,6387,6369,6354,6339,6324,6306,6285,6260,6233,6202,6169,6132,6092,6039,5996,5959,5928,5908,5897,5894,5894,5887,5869,5839,5797,5736,5671,5600,5527,5454,5383,5314,5246,5178,5109,5038,4969,4902,4839,4780,4722,4661,4597,4530,4462,4398,4340,4290,4248,4212,4179,4153,4127,4102,4077,4050,4023,3994,3966,3937,3909,3881,3855,3831,3809,3789,3771,3752,3733,3712,3689,3664,3638,3611,3583,3557,3531,3506,3483,3461,3440,3421,3404,3388,3374,3360,3346,3333,3319,3304,3288,3273,3257,3240,3224,3207,3190,3173,3155,3136,3118,3101,3086,3071,3059,3047,3037,3027,3020,3014,3011
0,0,0,0,18827,18558,18322,18050,17803,17620,17453,17254,0,0,0,0,0,0,0,0,0,0,0,0,0,0,0,0,0,1629,1621,1618,1616,1615,1614,1613,1613,1612,1612,1611,1611,1611,1610,1610,1610,1610,1611,1611,1613,1614,1616,1617,1618,1619,1620,1620,1621,1621,1622,1622,1623,1624,1625,1627,1629,1632,1636,1641,1647,1654,1663,1673,1684,1696,1707,1717,1725,1731,1736,1740,1745,1748,1752,1767,0,0,0,0,0,0,0,0,2359,2366,2362,2357,2355,2344,2340,2336,2332,2286,1977,1976,1972,1969,1965,1962,1960,1958,1958,1960,1962,1964,1967,1970,1972,1973,1973,1973,1974,1974,1974,1973,1967,1968,1967,1963,1962,1959,1955,1951,1943,1943,1945,1947,1948,1946,1941,1934,1925,1905,1890,1881,1874,1872,1871,1870,1871,1875,1878,1881,1884,1886,1886,1887,1887,1887,1887,1889,1892,1896,1903,1910,1918,1926,1933,1938,1942,1944,1946,1946,1946,1946,1945,1945,1944,1943,1943,1943,1943,1943,1943,1943,1945,1947,1950,1956,1962,1969,1976,1986,1995,2006,2019,2027,2032,2034,2031,2023,2015,1995,1974,1966,1962,1971,1971,1973,1977,1983,1990,1998,2007,2014,2020,2024,2030,2038,2056,2107,2137,2147,2227,2257,2282,2320,2333,2345,2355,2367,2377,2366,2345,2334,2312,1989,1983,2001,2017,2030,2047,2070,2040,2105,2128,2158,0,0,0,0,0,0,0,2410,2389,2383,2388,2319,2305,2300,2306,2310,2325,2337,2354,2341,0,0,0,2412,2422,2432,2443,2458,2473,2494,2516,2565,2626,2707,2712,2709,2681,2569,2583,2543,2523,0,0,0,0,0,0,0,0,0,0,0,0,0,0,0,0,0,0,570,571,575,573,571,0,0,0,0,0,0,0,0,0,0,0,0,0,646,646,645,645,645,644,644,644,644,643,643,643,643,643,643,643,643,643,643,643,643,643,643,643,643,643,643,643,643,643,643,643,643,643,643,643,643,643,643,643,643,643,643,643,643,642,642,642,642,642,642,642,643,643,643,643,643,643,643,643,643,643,642,642,642,642,642,642,643,643,643,643,644,644,644,645,645,0,0,2034,2040,2061,2061,2069,2086,2093,2097,2090,2089,2088,2086,2085,2083,2081,2078,2075,2071,2066,2061,2057,2056,2057,0,2632,2623,2609,2597,2585,2569,0,0,0,0,0,0,2220,2236,2192,2207,2188,2176,2165,2153,2138,2123,2109,2092,2077,2064,2050,2036,2023,2010,1998,1986,1973,1960,1946,1931,1915,1898,1881,1865,1850,1836,1822,1809,1796,1783,1769,1753,1736,1719,1702,1685,1670,1655,1641,1626,1610,1586,1538,1525,1515,1508,1503,1499,1497,1496,0,7311,7360,7366,7365,7364,7353,7330,7296,7255,7212,7173,7137,7107,7092,7053,7021,6987,6951,6912,6870,6822,6768,6686,6610,6561,6491,6468,6382,6400,6403,6531,6509,6482,6464,6435,6406,6379,6355,6334,6314,6293,6270,6244,6217,6190,6162,6132,6101,6068,6014,5977,5947,5919,5907,5903,5908,5917,5911,5894,5863,5819,5759,5691,5616,5538,5462,5389,5319,5251,5183,5114,5043,4973,4906,4842,4781,4723,4663,4600,4534,4467,4404,4347,4299,4257,4223,4189,4163,4137,4112,4086,4059,4031,4003,3974,3945,3916,3887,3860,3835,3812,3792,3773,3754,3734,3713,3691,3667,3641,3614,3588,3561,3536,3510,3486,3463,3442,3422,3405,3390,3375,3361,3348,3334,3319,3303,3287,3270,3254,3237,3221,3204,3187,3169,3152,3135,3118,3103,3089,3076,3065,3055,3046,3037,3030,3025,3022
0,0,0,0,19441,18474,18239,17971,17705,17510,17163,16901,0,0,0,0,0,0,0,0,0,0,0,0,0,0,0,0,0,1632,1619,1617,1615,1613,1611,1609,1608,1608,1607,1607,1607,1607,1607,1607,1607,1608,1608,1609,1611,1612,1614,1615,1617,1618,1619,1619,1620,1621,1621,1622,1623,1624,1625,1627,1629,1633,1637,1642,1648,1656,1664,1674,1685,1697,1708,1718,1726,1732,1737,1741,1745,1748,1751,1756,1778,0,0,1800,1786,1789,1791,1792,1789,1784,1784,2342,2337,2340,2337,0,0,0,1977,1976,1973,1970,1966,1962,1959,1957,1957,1958,1959,1962,1964,1965,1966,1966,1964,1963,1964,1963,1960,1957,1947,1952,1950,1944,1944,1939,1932,1927,1910,1910,1911,1914,1915,1913,1909,1902,1894,1881,1870,1862,1856,1853,1851,1850,1851,1853,1856,1858,1861,1862,1863,1864,1864,1865,1866,1868,1871,1875,1881,1889,1896,1904,1910,1915,1918,1921,1922,1922,1921,1920,1919,1917,1916,1914,1913,1913,1912,1912,1912,1913,1915,1919,1923,1930,1938,1945,1954,1964,1973,1986,2001,2009,2012,2013,2007,1996,1980,1957,1939,1932,1929,1933,1935,1939,1944,1951,1961,1971,1982,1989,1994,1995,1997,2000,2019,1974,1972,2069,2088,2079,2088,2074,2324,2317,2337,0,0,2368,2362,0,1899,1931,1946,1959,1985,1997,2010,2026,2010,2065,2094,2135,0,0,0,0,0,0,0,0,0,0,0,0,0,0,0,0,0,0,0,0,0,0,0,0,2428,2448,2457,2475,2493,2519,2543,2592,2634,2703,2730,2733,2721,2673,0,0,0,0,0,0,0,0,0,0,0,0,0,0,0,0,0,0,0,573,573,573,573,575,575,569,0,0,0,0,0,0,0,0,0,0,0,0,0,0,645,645,645,644,644,644,644,643,643,643,643,643,643,643,643,643,643,643,643,643,643,643,643,643,643,643,643,643,643,643,642,642,642,642,642,642,643,643,643,643,643,643,643,643,643,642,642,642,642,642,643,643,643,643,643,643,643,643,643,643,643,642,642,642,642,642,642,643,643,643,643,644,644,644,644,645,0,0,0,2043,2056,2064,2073,2087,2094,2098,2096,2091,2089,2088,2087,2085,2083,2080,2076,2072,2066,2059,2056,2051,0,0,0,2628,2615,2605,2594,0,0,0,0,0,2417,2239,2226,2243,2224,2206,2180,2164,2150,2135,2119,2104,2090,2075,2062,2049,2037,2025,2013,2001,1990,1978,1965,1953,1939,1925,1909,1893,1876,1860,1845,1831,1817,1805,1792,1779,1765,1750,1733,1716,1699,1682,1667,1653,1640,1625,1608,1562,1530,1516,1507,1501,1496,1492,1490,1489,0,7317,7346,7353,7356,7356,7347,7327,7297,7260,7220,7180,7141,7104,7074,7031,6992,6952,6914,6875,6837,6796,6752,6691,6635,6595,6496,6552,6383,6713,6661,6561,6527,6495,6466,6434,6402,6373,6347,6323,6300,6276,6250,6223,6195,6169,6144,6120,6094,6068,6005,5971,5945,5918,5912,5914,5931,5952,5947,5929,5897,5850,5788,5716,5636,5554,5474,5398,5327,5259,5192,5124,5053,4983,4914,4848,4785,4725,4664,4601,4534,4468,4405,4349,4301,4261,4227,4193,4165,4140,4114,4088,4061,4033,4005,3976,3947,3917,3888,3860,3835,3812,3791,3772,3753,3733,3713,3691,3668,3643,3618,3592,3566,3541,3516,3491,3467,3446,3426,3409,3393,3378,3364,3350,3335,3320,3303,3285,3268,3251,3233,3216,3199,3182,3165,3149,3133,3118,3104,3093,3082,3073,3064,3056,3049,3043,3039,3036
0,0,0,0,0,18395,18169,17913,17661,17441,17159,0,0,0,0,0,0,0,0,0,0,0,0,0,0,0,0,0,0,1623,1620,1616,1613,1611,1608,1607,1605,1605,1604,1604,1604,1604,1605,1605,1605,1605,1606,1607,1608,1610,1612,1613,1615,1616,1617,1618,1619,1620,1621,1622,1623,1624,1625,1627,1630,1633,1637,1642,1648,1656,1664,1674,1685,1697,1707,1717,1725,1731,1736,1740,1745,1748,1751,1755,1779,1788,1792,1791,1782,1782,1786,1787,1787,1788,1789,1792,1798,0,0,0,0,1971,1969,1976,1973,1972,1968,1963,1959,1957,1956,1956,1958,1959,1960,1961,1960,1959,1955,1951,1953,1950,1949,1946,1924,1934,1933,1924,1927,1913,1913,1906,1877,1876,1876,1878,1880,1881,1879,1875,1869,1860,1852,1846,1841,1838,1835,1834,1833,1834,1835,1836,1838,1839,1840,1841,1842,1844,1845,1848,1852,1857,1863,1870,1877,1884,1890,1894,1896,1897,1897,1896,1895,1893,1890,1888,1886,1885,1884,1883,1883,1883,1884,1886,1888,1892,1897,1906,1915,1923,1933,1944,1951,1966,1985,1992,1994,1994,1987,1972,1951,1921,1905,1899,1897,1900,1903,1907,1913,1921,1932,1943,1957,1963,1966,1962,1961,1959,1941,1916,1905,1874,1869,1861,1854,1848,1844,1841,1841,1842,1844,1849,1859,1869,1887,1901,1923,1936,1954,1965,1975,1982,1964,2031,2070,1944,0,0,0,0,0,0,0,0,0,0,0,0,0,0,0,0,0,0,0,0,0,0,0,0,2456,2461,2487,2499,2511,2538,2560,2604,2651,2697,2731,2738,2725,2738,0,0,0,0,0,0,0,0,0,0,0,0,0,0,0,0,0,0,0,573,573,573,573,575,575,573,573,0,0,0,0,0,0,0,0,0,0,0,0,0,644,644,644,644,644,644,643,643,643,643,643,643,643,642,642,642,642,643,643,643,643,643,643,643,643,642,642,642,642,642,642,642,642,642,642,642,642,643,643,643,643,643,643,643,643,642,642,642,642,642,643,643,643,643,643,643,643,643,643,643,643,643,642,642,642,642,642,642,643,643,643,643,643,644,644,644,0,0,0,0,2059,0,2073,2081,2094,2099,2101,2096,2090,2090,2089,2087,2084,2082,2078,2074,2068,2059,2055,0,0,0,0,0,0,0,0,0,0,0,0,0,0,2344,2231,2220,2229,2203,2180,2152,2136,2118,2101,2086,2072,2059,2046,2035,2025,2014,2004,1993,1982,1970,1959,1946,1933,1919,1904,1888,1872,1856,1840,1826,1813,1801,1789,1776,1762,1746,1730,1712,1696,1677,1663,1650,1637,1623,1607,1556,1519,1508,1500,1493,1488,1485,1483,1482,1472,7312,7331,7339,7343,7344,7338,7322,7297,7266,7230,7193,7152,7110,7069,7019,6972,6927,6886,6849,6816,6784,6753,6714,6678,6653,6567,6559,6850,6796,6648,6568,6526,6489,6455,6423,6395,6368,6344,6322,6300,6276,6249,6222,6195,6171,6150,6131,6114,6097,6197,6186,6175,5920,5919,5926,5956,5996,5990,5969,5934,5885,5820,5744,5660,5573,5490,5412,5340,5273,5207,5139,5070,4999,4929,4860,4793,4730,4667,4600,4532,4465,4402,4346,4297,4257,4223,4193,4163,4136,4110,4083,4056,4028,4000,3971,3942,3912,3883,3855,3830,3808,3788,3769,3750,3731,3711,3690,3668,3645,3621,3596,3571,3546,3521,3497,3474,3452,3432,3414,3398,3382,3368,3353,3337,3321,3303,3285,3266,3248,3230,3213,3195,3179,3162,3147,3132,3119,3108,3098,3089,3081,3074,3067,3062,3057,3053,3051
0,0,0,0,0,18181,18203,17833,17613,17460,0,0,0,0,0,0,0,0,0,0,0,0,0,0,0,0,0,1633,1629,1625,1620,1617,1613,1610,1607,1605,1604,1603,1602,1602,1602,1602,1603,1603,1603,1604,1604,1605,1606,1608,1610,1611,1613,1615,1616,1617,1618,1619,1620,1621,1622,1624,1625,1627,1629,1633,1637,1642,1648,1655,1664,1673,1684,1695,1705,1715,1722,1729,1734,1738,1742,1746,1750,1754,1768,1773,1790,1780,1781,1775,1776,1782,1782,1784,1787,1772,1793,0,0,0,1961,0,0,1983,1979,1974,1969,1964,1960,1957,1956,1956,1957,1957,1957,1956,1954,1949,1945,1940,1944,1943,1938,1929,1874,1842,1803,1818,1811,1806,1806,1810,1835,1840,1846,1850,1853,1855,1855,1853,1849,1843,1838,1833,1829,1825,1822,1820,1818,1817,1817,1817,1818,1818,1820,1821,1824,1826,1829,1833,1837,1842,1848,1854,1861,1867,1872,1874,1875,1874,1873,1870,1867,1864,1861,1858,1856,1855,1855,1855,1856,1857,1859,1860,1863,1867,1871,1883,1893,1902,1911,1923,1928,1946,1972,1979,1980,1991,1978,1959,1936,1871,1871,1868,1868,1871,1874,1879,1884,1891,1904,1914,1932,1938,1940,1930,1926,1920,1902,1884,1875,1853,1850,1844,1838,1834,1829,1826,1824,1825,1830,1836,1845,1856,1871,1884,1902,1914,1928,1937,1945,1953,1955,1964,1934,1932,0,0,0,0,0,0,0,0,0,0,0,0,0,0,0,0,0,0,0,0,0,0,0,0,0,2477,2510,2508,2514,2550,2573,2601,2630,2686,2753,2754,2752,0,0,0,0,0,0,0,0,0,0,0,0,0,0,0,0,0,0,0,0,572,572,572,572,575,575,573,573,0,0,0,0,0,0,0,0,0,0,0,0,0,644,644,644,644,644,643,643,643,643,643,642,642,642,642,642,642,642,642,643,643,643,643,642,642,642,642,642,642,642,642,642,642,642,642,642,642,642,642,643,643,643,643,643,643,642,642,642,642,642,643,643,643,643,643,643,643,643,643,643,643,643,643,643,642,642,642,642,642,643,643,643,643,643,643,644,0,0,0,0,0,0,0,0,0,2091,2101,2106,0,0,2091,2090,2088,2082,2082,2079,2076,2070,0,0,0,0,0,0,1653,1655,1648,0,0,0,0,0,0,0,2323,2313,2226,0,2200,2174,2141,2124,2103,2084,2069,2056,2044,2033,2023,2013,2004,1995,1985,1975,1964,1953,1941,1929,1915,1900,1884,1868,1852,1836,1822,1809,1797,1785,1772,1758,1743,1726,1709,1692,1671,1658,1645,1632,1619,1602,1580,1512,1500,1492,1485,1481,1478,1475,1474,1472,7307,7321,7328,7333,7334,7330,7317,7298,7272,7242,7207,7167,7122,7074,7020,6967,6918,6875,6839,6810,6786,6765,6740,6719,6703,7414,7382,7302,6665,6619,6551,6504,6465,6433,6406,6383,6364,6346,6330,6311,6289,6264,6237,6211,6189,6172,6158,6146,6136,6211,6199,6187,6177,6168,6159,5979,6046,6034,6009,5969,5917,5849,5770,5683,5594,5509,5431,5359,5293,5229,5163,5094,5023,4953,4880,4808,4740,4671,4600,4528,4459,4395,4338,4289,4249,4215,4185,4155,4128,4102,4075,4048,4020,3992,3963,3933,3903,3874,3847,3823,3802,3782,3764,3746,3728,3709,3689,3668,3646,3623,3599,3575,3550,3526,3502,3480,3458,3438,3419,3402,3386,3371,3356,3340,3323,3304,3285,3265,3246,3228,3210,3193,3176,3161,3146,3133,3122,3112,3104,3096,3090,3083,3079,3074,3070,3067,3066
0,0,0,0,0,0,0,0,0,0,0,0,0,0,0,0,0,0,0,0,0,0,0,0,0,1636,1634,1632,1629,1626,1621,1617,1614,1610,1607,1605,1603,1602,1602,1601,1601,1601,1601,1601,1602,1602,1603,1603,1605,1606,1608,1610,1612,1613,1615,1616,1617,1618,1619,1620,1622,1623,1625,1627,1629,1632,1636,1641,1647,1654,1663,1672,1682,1693,1703,1712,1719,1725,1730,1735,1739,1743,1747,1751,1756,1768,1771,1774,1774,1772,1774,1774,1775,1772,1762,1766,1795,1744,1746,0,0,2027,2021,2005,1979,1976,1971,1965,1961,1958,1956,1956,1956,1956,1955,1953,1949,1946,1938,1930,1835,1782,1775,1774,1810,1796,1789,1794,1793,1791,1792,1797,1812,1817,1824,1829,1834,1838,1839,1838,1836,1832,1827,1823,1819,1816,1812,1809,1806,1804,1802,1801,1801,1802,1803,1806,1810,1814,1818,1823,1828,1833,1838,1843,1849,1853,1857,1857,1855,1853,1849,1844,1839,1835,1831,1829,1827,1827,1828,1829,1831,1833,1835,1836,1838,1841,1845,1860,1872,1880,1890,1904,1903,1863,1824,1816,1821,1818,1818,1820,1823,1840,1841,1841,1842,1846,1849,1853,1857,1862,1877,1886,1912,1917,1918,1893,1888,1886,1861,1851,1843,1830,1826,1822,1818,1814,1810,1807,1805,1807,1811,1818,1828,1839,1854,1868,1883,1895,1906,1915,1922,1930,1938,1919,0,0,0,0,0,0,0,0,0,0,0,0,0,0,0,0,0,0,0,0,0,0,0,0,0,0,2497,2516,2522,2551,2557,2557,2571,2579,2595,2596,2597,0,0,0,0,0,0,0,0,0,0,0,0,0,0,0,0,0,0,0,0,0,571,572,572,572,572,572,572,573,0,0,0,0,0,0,0,0,0,0,0,0,0,0,644,644,644,644,644,643,643,643,643,642,642,642,642,642,642,642,642,642,642,642,642,642,642,642,642,642,642,642,642,642,642,642,642,642,642,642,642,642,643,643,643,643,643,643,642,642,642,642,643,643,643,643,643,643,643,643,643,643,643,643,643,643,643,642,642,642,642,642,643,643,643,643,643,643,643,0,0,3143,3138,0,0,0,0,0,0,0,0,0,0,0,0,0,0,0,0,2079,0,0,0,0,0,1684,0,1674,1668,1659,1651,0,0,0,0,0,0,0,2350,0,2335,2315,2154,2126,2113,2089,2070,2055,2043,2031,2021,2012,2004,1996,1987,1978,1969,1959,1949,1937,1925,1912,1898,1882,1865,1848,1833,1819,1806,1794,1782,1769,1755,1740,1722,1704,1688,1665,1651,1639,1626,1615,1572,1529,1507,1493,1485,1478,1474,1470,1468,1467,1459,7305,7317,7323,7327,7329,7324,7314,7298,7276,7250,7218,7180,7135,7085,7029,6975,6924,6880,6844,6818,6797,6781,6763,6746,6731,7365,7319,6686,6635,6581,6518,6471,6433,6404,6384,6370,6360,6352,6343,6330,6311,6287,6261,6237,6216,6201,6190,6183,6178,6224,6209,6195,6182,6171,6160,6147,6029,6010,6041,5995,5941,5871,5792,5704,5616,5531,5454,5384,5320,5258,5194,5128,5057,4985,4907,4828,4753,4679,4601,4524,4452,4386,4329,4279,4239,4205,4175,4146,4119,4093,4066,4039,4011,3982,3953,3922,3892,3863,3837,3814,3794,3776,3760,3743,3726,3708,3688,3668,3647,3624,3601,3577,3553,3529,3506,3485,3463,3443,3424,3406,3390,3374,3358,3342,3324,3305,3285,3265,3245,3226,3208,3191,3175,3161,3147,3135,3125,3116,3109,3103,3097,3092,3088,3084,3081,3078,3077
0,0,0,0,0,0,0,0,0,0,0,0,0,0,0,0,0,0,0,0,0,0,0,0,0,1635,1641,1633,1630,1627,1622,1619,1615,1611,1608,1606,1604,1603,1602,1601,1601,1601,1601,1601,1601,1601,1601,1602,1603,1605,1607,1608,1610,1612,1614,1615,1616,1617,1618,1620,1621,1622,1624,1626,1629,1632,1636,1641,1647,1653,1661,1670,1680,1690,1700,1708,1715,1721,1726,1731,1735,1739,1743,1747,1759,1763,1765,1765,1764,1765,1758,1767,1767,1767,1757,1760,1749,1750,1743,1743,1803,2028,2022,2010,1977,1977,1972,1966,1961,1958,1956,1956,1955,1955,1954,1951,1950,1945,1745,1710,1716,1729,1733,1739,1756,1765,1771,1776,1777,1779,1781,1786,1796,1802,1809,1816,1822,1827,1829,1829,1827,1824,1820,1817,1813,1808,1804,1800,1796,1793,1791,1789,1788,1789,1791,1795,1800,1806,1812,1818,1823,1828,1832,1836,1840,1843,1846,1843,1838,1833,1827,1820,1814,1809,1805,1802,1801,1802,1804,1806,1808,1811,1812,1813,1813,1814,1816,1838,1855,1879,1886,1895,1892,1881,1798,1802,1803,1802,1802,1803,1806,1815,1816,1817,1819,1822,1825,1828,1831,1833,1826,1823,1781,1778,1778,1844,1844,1818,1824,1817,1812,1804,1801,1797,1794,1792,1788,1783,1782,1784,1789,1796,1807,1821,1837,1852,1866,1879,1890,1899,1905,1916,1912,1914,0,0,0,0,0,0,2564,2555,2540,0,0,0,0,0,0,0,0,0,0,0,0,0,0,0,0,0,0,2485,2553,2565,2566,2564,2573,2580,2588,2586,0,0,0,0,0,0,0,0,0,0,0,0,0,0,0,0,0,0,0,0,0,0,571,572,571,571,571,571,557,556,0,0,0,0,0,0,0,0,0,0,0,643,642,642,643,644,644,644,644,643,643,643,643,642,642,642,642,642,642,642,642,642,642,642,642,642,642,642,642,642,642,642,642,642,642,642,642,642,642,642,642,642,643,643,643,643,643,643,643,643,643,643,643,643,643,643,643,643,643,643,643,643,643,643,643,643,643,642,642,642,642,642,643,643,643,643,643,643,0,0,0,3141,3139,0,0,0,0,0,0,0,0,0,0,0,0,0,0,0,0,0,0,0,0,0,0,1684,1683,1677,1673,1663,1654,0,0,0,0,0,0,0,0,0,0,0,0,2116,2102,2073,2058,2045,2033,2022,2013,2004,1996,1988,1980,1972,1964,1955,1945,1935,1923,1910,1896,1880,1863,1846,1830,1815,1802,1790,1778,1765,1752,1736,1718,1707,1677,1658,1645,1633,1620,1610,1597,1530,1504,1486,1478,1471,1467,1463,1461,1460,1456,7306,7318,7322,7325,7325,7319,7309,7293,7273,7250,7221,7186,7145,7097,7044,6991,6941,6897,6861,6834,6814,6797,6779,6760,6740,6733,6699,6654,6598,6541,6482,6436,6401,6377,6366,6361,6361,6362,6362,6355,6341,6319,6293,6269,6249,6236,6229,6227,6227,6256,6217,6199,6181,6166,6151,6136,6120,6097,6067,6012,5956,5887,5809,5724,5638,5557,5483,5416,5354,5295,5235,5170,5099,5028,4942,4851,4769,4687,4603,4519,4444,4376,4319,4267,4228,4194,4165,4137,4111,4085,4059,4032,4004,3974,3943,3912,3881,3852,3827,3805,3787,3770,3755,3740,3724,3706,3688,3668,3647,3624,3601,3577,3554,3532,3510,3489,3468,3447,3428,3409,3392,3376,3360,3343,3325,3305,3285,3264,3244,3225,3207,3191,3176,3162,3149,3138,3128,3119,3112,3106,3101,3096,3092,3089,3086,3084,3083
0,0,0,0,0,0,0,0,0,0,0,0,0,0,0,0,0,0,0,0,0,0,0,0,1659,1640,1641,1634,1631,1628,1624,1620,1617,1613,1610,1608,1605,1604,1602,1602,1601,1600,1600,1600,1600,1600,1601,1601,1603,1604,1606,1608,1610,1611,1613,1614,1615,1616,1617,1618,1620,1621,1623,1625,1628,1631,1635,1640,1646,1652,1660,1668,1677,1687,1696,1705,1712,1717,1722,1726,1731,1734,1738,1742,1753,1757,1760,1758,1758,1753,1755,1762,1761,1761,1766,1756,1746,1748,1739,0,0,0,2023,2012,2006,1976,1969,1962,1961,1955,1953,1955,1955,1955,1689,1670,1672,1677,1689,1701,1706,1716,1721,1728,1741,1749,1756,1762,1767,1770,1774,1779,1787,1793,1800,1809,1816,1821,1824,1824,1822,1820,1816,1812,1808,1803,1798,1793,1789,1785,1782,1780,1779,1780,1783,1788,1795,1802,1809,1816,1821,1826,1829,1832,1835,1836,1828,1832,1822,1816,1808,1800,1793,1788,1783,1781,1780,1781,1782,1785,1787,1789,1790,1789,1787,1786,1784,1769,1746,1744,1743,1744,1754,1763,1781,1784,1787,1787,1788,1788,1790,1794,1795,1796,1797,1802,1804,1806,1807,1807,1801,1796,1785,1761,1760,1790,1790,1790,1791,1787,1783,1778,1775,1773,1770,1769,1763,1757,1756,1757,1764,1772,1786,1802,1821,1838,1853,1867,1877,1889,1895,1903,1894,0,0,0,0,0,0,2597,2593,2586,2547,0,0,0,0,0,0,0,0,0,0,0,0,0,0,0,0,0,0,0,2565,2576,2576,2573,2580,2580,2590,2574,2533,0,0,0,0,0,0,0,0,0,0,0,0,0,0,0,0,0,0,0,0,0,0,0,571,571,571,571,0,0,0,0,0,0,0,0,0,0,0,0,0,643,642,643,644,644,644,644,644,643,643,643,643,642,642,642,642,642,642,642,642,642,642,642,642,642,642,642,642,642,642,642,642,642,642,642,642,642,642,642,642,643,643,643,643,643,643,643,643,643,643,643,643,643,643,643,643,643,643,643,643,643,643,643,643,643,643,642,642,642,642,642,643,643,643,643,643,643,0,0,0,3152,0,0,0,0,0,0,0,0,0,0,0,0,0,0,0,0,0,0,0,0,0,0,0,1685,1684,1680,1677,1666,0,0,0,0,0,0,0,0,0,0,0,0,0,0,0,2062,2047,2038,2027,2016,2007,1998,1990,1982,1974,1966,1959,1951,1941,1931,1920,1908,1894,1877,1860,1843,1826,1812,1798,1786,1774,1762,1748,1733,1714,1689,1667,1652,1639,1627,1616,1606,1578,1577,1502,1478,1471,1465,1460,1457,1455,1454,1452,7315,7309,7319,7321,7318,7311,7298,7281,7262,7240,7215,7185,7149,7107,7060,7012,6964,6921,6885,6856,6832,6811,6789,6764,6736,6712,6671,6621,6563,6506,6450,6407,6376,6358,6355,6424,6370,6378,6387,6387,6377,6358,6334,6310,6292,6281,6277,6280,6285,6306,6343,6345,6336,6317,6290,6254,6166,6132,6092,6025,5969,5901,5826,5746,5665,5587,5518,5454,5396,5341,5284,5223,5151,5080,4983,4876,4786,4697,4604,4513,4436,4365,4308,4254,4216,4184,4156,4130,4105,4080,4054,4027,3998,3967,3935,3902,3871,3842,3817,3796,3779,3764,3750,3736,3721,3704,3686,3667,3646,3623,3600,3576,3554,3532,3511,3491,3471,3451,3431,3412,3394,3377,3360,3343,3324,3304,3283,3263,3242,3224,3206,3191,3176,3162,3150,3139,3129,3120,3113,3106,3101,3096,3091,3088,3086,3084,3083
0,0,0,0,0,0,0,0,0,0,0,0,0,0,0,0,0,0,0,0,0,0,0,0,0,1640,1637,1637,1632,1629,1625,1622,1618,1615,1612,1609,1607,1605,1603,1602,1601,1600,1600,1600,1600,1600,1600,1601,1602,1604,1606,1608,1609,1611,1612,1613,1614,1615,1616,1617,1618,1620,1622,1624,1627,1630,1634,1639,1644,1650,1658,1666,1675,1684,1693,1702,1708,1714,1719,1723,1727,1730,1733,1737,1747,1751,1751,1753,1752,1751,1749,1758,1757,1757,1723,1732,1744,0,0,0,0,0,0,0,2007,2001,1994,1611,0,1767,1613,1626,0,1650,1645,1658,1665,1671,1681,1691,1697,1705,1711,1718,1729,1738,1745,1753,1760,1765,1769,1774,1782,1788,1796,1806,1813,1818,1821,1822,1820,1817,1813,1809,1804,1798,1792,1787,1782,1778,1775,1773,1772,1774,1778,1784,1792,1801,1809,1815,1821,1825,1829,1829,1824,1823,1820,1814,1810,1802,1793,1784,1777,1771,1767,1764,1763,1763,1764,1765,1767,1769,1769,1766,1763,1759,1755,1737,1731,1729,1730,1732,1740,1750,1763,1769,1773,1775,1776,1776,1776,1777,1777,1778,1778,1783,1785,1787,1787,1786,1780,1768,1762,1761,1781,1765,1764,1763,1763,1759,1757,1752,1750,1748,1746,1746,1738,1728,1727,1729,1738,1748,1765,1784,1808,1827,1842,1860,1869,1883,1878,1897,0,0,0,0,0,0,2601,2593,2590,0,2547,0,0,0,31285,28367,28036,0,0,0,0,0,0,0,0,0,0,0,0,0,0,2587,2586,2589,2588,2586,2589,2576,2573,2534,2468,0,0,0,0,0,0,0,0,0,0,0,0,0,0,0,0,0,0,0,0,0,571,571,571,0,0,0,0,0,0,0,0,0,0,0,0,0,643,643,642,643,644,644,644,644,644,643,643,643,643,643,643,643,643,642,642,642,642,642,642,642,642,642,642,642,642,642,642,642,642,642,642,642,642,642,642,643,643,643,643,643,643,643,643,643,643,643,643,643,643,643,643,643,643,643,643,643,643,643,643,643,643,643,643,643,642,642,642,643,643,643,643,643,643,643,0,0,0,0,0,0,0,0,0,0,0,0,0,0,0,0,0,0,0,0,0,0,0,0,0,0,0,1678,1676,1682,1673,0,0,0,0,0,0,0,0,0,0,0,0,0,0,0,0,2095,2039,2031,2023,2012,2003,1994,1985,1977,1968,1961,1954,1946,1937,1927,1916,1904,1891,1874,1856,1839,1823,1808,1794,1782,1770,1758,1744,1730,1711,1679,1663,1648,1635,1624,1613,1604,1580,1542,1500,1472,1465,1458,1454,1451,1449,1449,1448,7217,7304,7309,7309,7304,7293,7278,7261,7243,7224,7203,7179,7151,7117,7078,7035,6991,6949,6912,6879,6851,6824,6795,6762,6727,6691,6645,6593,6536,6480,6429,6390,6363,6351,6356,6434,6451,6400,6417,6424,6420,6405,6384,6364,6348,6339,6338,6344,6352,6366,6385,6381,6365,6341,6310,6272,6205,6165,6119,6036,5985,5919,5849,5776,5701,5627,5562,5502,5447,5396,5344,5288,5214,5148,5033,4901,4802,4706,4604,4506,4427,4354,4299,4240,4205,4174,4149,4125,4102,4078,4052,4025,3994,3961,3927,3893,3861,3832,3808,3787,3771,3756,3743,3730,3715,3699,3681,3662,3641,3619,3596,3573,3552,3531,3512,3493,3474,3454,3434,3414,3396,3378,3361,3342,3323,3303,3281,3260,3240,3221,3205,3189,3175,3162,3150,3138,3128,3119,3110,3103,3097,3091,3086,3083,3080,3079,3078
0,0,0,0,0,0,0,0,0,0,0,0,0,0,0,0,0,0,0,0,0,0,0,0,0,1638,1637,1637,1636,1629,1627,1623,1620,1616,1613,1610,1608,1605,1604,1602,1601,1600,1600,1599,1599,1600,1600,1601,1602,1604,1606,1607,1609,1610,1611,1612,1613,1614,1615,1616,1617,1618,1620,1622,1625,1628,1632,1637,1642,1648,1655,1663,1671,1681,1690,1699,1706,1712,1717,1721,1724,1727,1729,1738,1742,1747,1747,1750,1749,1744,1756,0,0,1448,1446,0,0,0,0,1550,1556,1567,1567,1572,1578,1581,1586,1590,1595,1600,1605,1611,1618,1629,1638,1650,1658,1666,1674,1682,1689,1696,1703,1709,1719,1729,1738,1748,1756,1762,1767,1772,1779,1785,1784,1805,1812,1818,1821,1821,1819,1816,1812,1807,1802,1794,1788,1782,1777,1773,1769,1768,1768,1770,1775,1782,1792,1802,1810,1817,1821,1825,1827,1826,1818,1827,1802,1798,1795,1787,1776,1773,1765,1760,1756,1752,1750,1749,1749,1749,1749,1751,1750,1745,1741,1736,1732,1720,1716,1716,1717,1721,1728,1740,1752,1756,1762,1767,1767,1766,1764,1764,1762,1762,1761,1753,1766,1769,1772,1774,1775,1775,1770,1769,1770,1775,1773,1739,1737,1734,1732,1728,1726,1724,1724,1727,1714,1699,1697,1700,1713,1724,1746,1770,1797,1819,1829,1851,1867,0,0,0,0,0,0,0,0,0,2598,2592,2591,0,0,0,0,0,32884,29801,29374,28634,0,0,0,0,0,0,0,0,0,0,0,0,0,2595,2595,2596,2595,2588,2593,2580,2576,2567,2526,2501,2453,0,0,0,0,0,0,0,0,0,0,0,0,0,0,0,0,0,0,0,0,0,0,0,0,0,0,0,0,0,0,0,0,0,0,0,644,645,643,644,644,644,644,644,644,643,643,643,643,643,643,643,643,643,643,643,643,642,642,642,642,642,642,642,642,642,642,642,642,642,643,643,643,643,643,643,643,643,643,643,643,643,643,643,643,643,643,643,643,643,643,643,643,643,643,643,643,643,643,643,643,643,643,643,643,643,643,643,643,643,643,643,644,644,0,0,0,0,0,0,0,0,0,0,0,0,0,0,0,0,0,0,0,0,0,0,0,0,0,0,0,0,0,0,0,0,0,0,0,0,0,0,0,0,0,0,0,0,0,0,0,2044,2083,2061,2024,2009,2000,1991,1981,1972,1963,1955,1948,1940,1930,1920,1909,1897,1885,1867,1851,1833,1817,1802,1789,1777,1765,1752,1739,1724,1704,1682,1662,1645,1632,1621,1611,1603,1599,1547,1480,1465,1458,1452,1448,1445,1443,1444,1443,7175,7281,7284,7283,7275,7263,7248,7231,7215,7200,7186,7170,7150,7125,7094,7058,7018,6977,6937,6901,6867,6834,6798,6759,6717,6675,6626,6574,6520,6467,6421,6385,6362,6352,6327,6342,6368,6425,6450,6465,6468,6460,6445,6430,6418,6413,6414,6421,6429,6437,6442,6428,6405,6374,6338,6298,6243,6202,6155,6048,6010,5949,5886,5820,5748,5678,5616,5559,5507,5461,5415,5367,5291,5237,5093,4914,4811,4713,4621,4495,4426,4350,4299,4175,4193,4166,4144,4123,4102,4078,4053,4024,3991,3954,3919,3883,3850,3821,3797,3776,3759,3745,3731,3718,3704,3688,3669,3651,3631,3610,3588,3567,3547,3528,3511,3494,3475,3456,3436,3416,3397,3379,3360,3341,3321,3300,3278,3256,3236,3218,3202,3187,3173,3160,3148,3137,3126,3116,3106,3098,3091,3085,3080,3075,3072,3070,3069
0,0,0,0,0,0,0,0,0,0,0,0,0,0,0,0,0,0,0,0,0,0,0,0,1640,1629,1639,1637,1632,1628,1625,1623,1620,1616,1613,1610,1608,1605,1603,1602,1601,1600,1599,1599,1599,1600,1600,1601,1603,1604,1606,1607,1609,1610,1611,1612,1612,1613,1613,1614,1615,1617,1618,1621,1623,1627,1631,1635,1640,1646,1653,1660,1668,1678,1687,1698,1705,1712,1716,1720,1723,1726,1727,1734,1738,1744,1752,0,0,0,1429,1429,1433,1438,1444,1458,1485,1507,1513,1538,1548,1556,1562,1568,1573,1578,1583,1588,1592,1597,1602,1608,1615,1624,1633,1643,1652,1660,1669,1676,1683,1690,1697,1702,1712,1723,1733,1732,1745,1755,1759,1766,0,0,1792,0,0,0,1835,1831,1826,1821,1815,1810,1801,1791,1784,1777,1772,1768,1765,1764,1765,1767,1772,1782,1791,1804,1812,1818,1823,1828,1820,1819,1812,1807,1800,1793,1786,1778,1770,1762,1757,1761,1755,1744,1745,1736,1735,1736,1727,1730,1734,1727,1724,1719,1715,1707,1705,1705,1708,1712,1720,1730,1743,1754,1761,1759,1759,1756,1753,1751,1748,1740,1744,1746,1751,1755,1759,1762,1764,1765,1762,1762,1761,1762,1758,1753,1746,1740,1741,1736,1704,1727,1704,1712,1675,1668,1667,1671,1691,1703,1732,1751,0,1811,1829,1843,1866,0,0,0,2187,2192,2199,2207,0,0,0,2590,2561,0,0,0,0,0,34938,33762,30941,30002,0,0,0,0,0,0,0,0,0,0,0,2596,2603,2602,2603,2604,2601,2600,2598,2594,2581,2572,2543,2533,2488,0,0,0,0,0,0,0,0,0,0,0,0,0,0,0,0,0,0,0,0,0,0,0,0,0,0,0,0,0,0,0,0,0,0,0,645,646,646,645,645,645,645,644,644,643,643,643,643,643,643,643,643,643,643,643,643,643,643,642,642,642,642,642,642,642,642,642,642,643,643,643,643,643,643,643,643,643,643,643,643,643,643,643,643,643,643,643,643,643,643,643,643,643,643,643,643,643,643,643,643,643,643,643,643,643,643,643,643,643,643,644,644,644,0,0,0,0,0,0,0,0,0,0,0,0,0,0,0,0,0,0,0,0,0,0,0,0,0,0,0,1636,1633,0,0,0,0,0,0,0,0,0,0,0,0,0,0,0,0,0,0,0,0,0,0,2007,1998,1988,1978,1968,1957,1948,1943,1933,1922,1911,1898,1886,1876,1858,1842,1826,1811,1797,1784,1772,1760,1748,1734,1719,1701,1680,1661,1642,1629,1618,1609,1598,1594,1520,1463,1459,1452,1445,1441,1438,1437,1438,1438,7190,7240,7242,7240,7232,7219,7204,7190,7178,7170,7164,7157,7146,7130,7106,7075,7038,6998,6957,6917,6878,6838,6797,6753,6708,6662,6614,6564,6513,6465,6422,6389,6369,6362,6364,6382,6410,6450,6481,6503,6515,6517,6513,6505,6500,6499,6503,6510,6514,6513,6506,6482,6449,6411,6370,6328,6281,6243,6204,6036,6047,5994,5938,5873,5806,5742,5682,5624,5573,5531,5494,5460,5395,5373,5259,4950,4844,4750,4645,4447,4373,4295,4252,4146,4127,4107,4093,4079,4104,4081,4055,4023,3987,3945,3908,3871,3837,3808,3783,3761,3744,3728,3713,3700,3685,3668,3649,3632,3614,3595,3576,3557,3539,3523,3507,3492,3475,3457,3437,3418,3398,3379,3360,3340,3319,3297,3274,3252,3232,3214,3198,3183,3170,3158,3145,3134,3123,3112,3102,3094,3086,3080,3074,3069,3066,3063,3062
0,0,0,0,0,0,0,0,0,0,0,0,0,0,0,0,0,0,0,0,0,0,0,0,0,1627,1640,1655,1613,1624,1623,1621,1618,1615,1612,1609,1606,1604,1602,1601,1600,1599,1598,1598,1599,1599,1600,1601,1602,1604,1606,1607,1608,1610,1610,1611,1611,1612,1612,1613,1614,1615,1617,1619,1621,1625,1628,1633,1638,1643,1650,1657,1666,1675,1685,1698,1706,1713,1718,1722,1725,1727,1727,1731,1728,0,0,1419,1421,1422,1425,1428,1433,1438,1445,1457,1473,1491,1508,1529,1540,1549,1557,1564,1570,1575,1580,1584,1589,1593,1599,1604,1610,1619,1628,1638,1647,1656,1664,1672,1679,1685,1693,1696,1706,1712,0,0,0,0,0,2271,2299,2291,2282,0,0,0,0,0,0,1810,1809,0,0,1787,1779,1774,1768,1765,1762,1762,1763,1768,1774,1780,1790,1805,1814,1820,1824,1822,1819,1817,1815,1805,1798,1827,1781,1772,1766,1757,1746,1747,1754,1727,1739,1735,1731,1725,1723,1750,1684,1681,1680,1679,1681,1682,1683,1684,1689,1692,1697,1708,1771,1715,1760,1754,1753,1751,1747,1733,1745,1740,1729,1732,1739,1745,1750,1755,1758,1759,1758,1757,1754,1752,1747,1739,1731,1725,1731,1726,1722,1718,1605,1591,1603,1624,1632,1643,1674,1686,0,0,1792,1808,1819,1852,0,0,0,2176,2183,2189,2195,2206,0,0,0,0,0,0,0,0,0,0,34621,35705,32311,30351,0,0,0,0,0,0,0,0,0,0,2593,2599,2604,2603,2608,2606,2605,2604,2602,2599,2594,2587,2549,2540,2487,0,0,0,0,0,0,0,0,0,0,0,0,0,0,0,0,0,0,0,0,0,0,0,0,0,0,0,0,0,0,0,0,0,0,0,0,648,647,646,646,645,645,644,644,644,643,643,643,643,643,643,643,643,643,643,643,643,643,643,643,643,642,642,642,642,642,642,643,643,643,643,643,643,643,643,643,643,643,643,643,643,643,643,643,643,643,643,643,643,643,643,643,643,643,643,643,643,643,643,643,643,643,643,643,643,643,643,643,643,644,644,644,645,647,0,0,0,0,0,0,0,0,0,0,0,0,0,0,0,0,0,0,0,0,0,0,0,0,1594,1593,1633,1632,1630,0,0,0,0,0,0,0,0,0,0,0,0,0,0,0,0,0,0,0,0,0,0,0,1988,1975,1963,1951,1942,1938,1926,1912,1899,1883,1872,1865,1845,1831,1816,1803,1790,1778,1767,1755,1743,1730,1715,1697,1678,1659,1637,1624,1614,1605,1597,1569,1538,1462,1453,1446,1438,1433,1431,1429,1433,1433,7155,7188,7190,7186,7178,7166,7153,7142,7136,7134,7136,7138,7136,7128,7110,7084,7049,7008,6965,6921,6878,6834,6789,6742,6695,6649,6604,6558,6512,6468,6430,6399,6382,6377,6382,6401,6432,6471,6506,6537,6559,6573,6580,6584,6587,6591,6596,6599,6597,6587,6567,6532,6488,6440,6393,6348,6304,6268,6232,6205,6111,6060,6282,6221,5884,5824,5754,5690,5636,5596,5567,5545,5478,5749,5450,0,0,0,4645,4576,4366,4276,4246,4218,4202,4096,4086,4075,4059,4040,4057,4022,3981,3932,3893,3856,3822,3793,3769,3745,3726,3707,3690,3675,3659,3629,3623,3607,3591,3575,3558,3542,3527,3513,3500,3486,3471,3454,3436,3417,3398,3379,3359,3338,3316,3293,3270,3248,3227,3209,3194,3180,3167,3154,3143,3131,3120,3109,3100,3091,3084,3077,3071,3066,3062,3059,3059
0,0,0,0,0,0,0,0,0,0,0,0,0,0,0,0,0,0,0,0,0,0,0,0,0,0,1639,1623,1606,1604,1617,1615,1614,1612,1609,1607,1604,1602,1601,1599,1598,1598,1598,1598,1598,1599,1600,1601,1602,1603,1605,1607,1608,1609,1610,1611,1611,1611,1611,1612,1612,1614,1615,1617,1620,1623,1626,1631,1635,1641,1647,1654,1663,1674,1685,1699,1706,1716,1721,1725,1727,1730,1725,0,0,0,1417,1418,1419,1421,1423,1427,1432,1438,1445,1456,1470,1486,1503,1520,1532,1542,1551,1559,1565,1571,1576,1580,1585,1589,1594,1599,1605,1615,1624,1633,1644,1654,1662,1669,1676,1683,1692,1690,1694,0,0,0,0,2242,2266,2267,2280,2281,2285,2285,0,0,0,0,0,0,0,0,0,0,0,0,1744,1743,1749,1758,1760,1768,1775,1792,1797,1809,1816,1821,1817,1838,1814,1818,1813,1844,1836,1826,1779,1771,1763,1755,1748,1744,1726,1717,1748,1747,1745,1745,1744,1657,1718,1664,1666,1666,1669,1673,1674,1677,1683,1687,1691,1782,1774,1784,1780,1782,1747,1734,1730,1747,1740,1734,1714,1719,1731,1737,1744,1750,1755,1757,1757,1755,1751,1747,1740,1731,1722,1715,1600,1602,1597,1578,1569,1570,1584,1598,1606,1619,1642,0,0,0,0,0,0,0,0,0,0,2175,2180,2185,2190,0,0,0,0,0,0,0,0,0,0,0,0,0,0,0,0,0,0,0,0,0,0,0,0,0,2594,2605,2613,2612,2609,2608,2608,2608,2606,2603,2599,2593,2556,2546,2503,0,0,0,0,0,0,0,0,0,0,0,0,0,0,0,0,0,0,0,0,0,0,0,578,578,0,0,0,0,0,0,0,0,0,0,651,649,648,647,646,646,645,645,644,644,643,643,643,643,644,644,644,643,643,643,643,643,643,643,643,643,643,643,643,643,643,643,643,643,643,643,643,643,643,643,643,643,643,643,643,643,643,643,643,643,643,643,643,643,643,643,643,643,643,643,643,643,643,643,643,643,643,643,643,643,643,643,643,644,644,644,645,645,646,0,0,0,0,0,0,0,0,0,0,0,0,0,0,0,0,0,0,0,0,0,0,0,1632,1599,1597,1593,1591,1630,0,0,0,0,0,0,0,0,0,0,0,0,0,0,0,0,0,0,0,0,0,0,0,0,0,1951,1947,1936,1930,1920,1901,1886,1865,1854,1844,1830,1818,1807,1795,1784,1773,1762,1751,1739,1726,1711,1694,1676,1656,1627,1616,1607,1598,1589,1564,1551,1463,1448,1441,1430,1426,1423,1421,1429,1430,7126,7140,7141,7136,7127,7115,7103,7095,7093,7097,7106,7115,7120,7117,7104,7080,7046,7004,6959,6912,6865,6817,6770,6722,6676,6632,6591,6552,6511,6472,6439,6411,6399,6395,6400,6418,6448,6486,6526,6562,6594,6620,6640,6656,6667,6675,6679,6678,6668,6647,6613,6566,6510,6453,6399,6352,6312,6282,6255,6235,6173,6415,6383,6325,6241,5898,5826,5750,5685,5643,5616,5604,5495,5883,5971,5886,0,0,0,0,0,4286,4259,4213,4200,4191,4182,4172,4059,4040,4015,3981,3938,3884,3874,3838,3805,3777,3753,3729,3709,3686,3666,3645,3627,3609,3594,3579,3565,3551,3537,3523,3511,3499,3488,3476,3463,3448,3431,3414,3395,3377,3357,3336,3314,3290,3267,3244,3224,3206,3190,3176,3164,3152,3141,3129,3119,3108,3099,3091,3083,3077,3071,3065,3062,3084,3084
0,0,0,0,0,0,0,0,0,0,0,0,0,0,0,0,0,0,0,0,0,0,0,0,0,0,0,1606,1602,1612,1611,1610,1609,1607,1605,1603,1602,1600,1599,1598,1597,1597,1597,1597,1597,1598,1599,1600,1601,1603,1604,1606,1607,1609,1610,1610,1611,1611,1611,1611,1612,1613,1614,1616,1618,1621,1624,1628,1632,1638,1644,1652,1661,1673,1685,1695,1709,1719,1724,1728,1729,1731,0,0,1419,1417,1415,1415,1416,1418,1421,1425,1430,1437,1445,1455,1468,1482,1496,1511,1523,1533,1544,1553,1559,1566,1571,1576,1580,1584,1590,1595,1599,1602,1606,1618,1629,1638,1646,1655,1663,1668,0,1676,1946,1957,1968,1975,2212,2256,2261,2267,2277,2281,2288,2282,2303,2314,0,0,0,0,0,0,0,0,0,0,1757,1754,1772,1755,1764,1779,1784,1796,1805,1882,1883,1882,0,0,1818,1821,0,0,0,1764,1760,1748,1745,1740,1746,1737,0,0,0,0,0,1676,1669,1636,1638,0,1646,1649,1658,1666,1670,1674,1695,0,1895,1883,1880,0,0,1786,0,1758,1753,1747,1650,1634,1699,1707,1725,1732,1741,1748,1754,1757,1757,1756,1751,1747,0,1581,1570,1547,1544,1539,1537,1542,1549,1553,1565,1577,1586,1604,1599,0,0,0,0,0,0,0,0,0,0,0,2171,2183,2187,0,0,0,0,0,0,0,0,0,0,0,0,0,0,0,0,0,0,0,0,0,0,0,0,0,0,0,2611,2612,2610,2609,2610,2610,2610,2608,2605,2597,2562,2566,0,0,0,0,0,0,0,0,0,0,0,0,0,0,0,0,0,0,0,0,0,0,0,0,580,575,0,0,0,0,0,0,0,0,0,658,651,650,649,648,647,646,645,645,644,644,644,644,644,644,644,644,644,644,644,644,643,643,643,643,643,643,643,643,643,643,643,643,643,643,643,643,643,643,643,643,643,643,643,643,643,643,643,643,643,643,643,643,643,643,643,643,643,643,643,643,643,643,643,643,643,643,643,643,643,643,643,643,643,644,644,644,645,645,646,0,0,0,0,0,0,0,0,0,0,0,0,0,0,0,0,0,0,0,0,0,0,1662,1607,1633,1630,1591,1588,1585,1587,0,0,0,0,0,0,0,0,0,0,0,0,0,0,0,0,0,0,0,0,0,0,0,0,1896,1971,1967,1962,1884,1925,1851,1846,1837,1823,1818,1808,1798,1789,1779,1768,1758,1747,1735,1721,1706,1688,1669,1633,1617,1606,1598,1590,1582,1556,1547,1466,1445,1438,1423,1418,1415,1413,1411,0,7103,7105,7106,7100,7089,7076,7065,7058,7058,7065,7077,7090,7099,7099,7088,7065,7031,6987,6939,6889,6839,6790,6741,6694,6650,6609,6573,6541,6507,6474,6449,6420,6396,6401,6407,6426,6459,6498,6540,6582,6622,6659,6690,6715,6732,6742,6743,6735,6715,6682,6635,6575,6507,6441,6380,6333,6298,6277,6266,6264,6228,6495,6472,6417,6329,5972,5893,5796,5713,5663,5635,5629,5658,5937,6023,5904,0,13911,13861,0,0,0,0,0,0,4196,4197,4178,4272,4058,4027,3984,3927,3859,3828,3819,3789,3764,3742,3671,3651,3668,3644,3622,3601,3582,3566,3552,3538,3528,3514,3502,3492,3482,3472,3462,3450,3437,3422,3406,3390,3372,3353,3332,3310,3287,3263,3241,3221,3204,3188,3175,3162,3151,3140,3129,3119,3109,3100,3092,3085,3079,3073,3092,3091,3091,3090
0,0,0,0,0,0,0,0,0,0,0,0,0,0,0,0,0,0,0,0,0,0,0,0,0,0,0,1619,1605,1606,1606,1605,1604,1603,1602,1600,1599,1598,1597,1597,1596,1596,1596,1597,1597,1598,1599,1599,1601,1602,1604,1605,1607,1608,1610,1610,1611,1611,1611,1611,1611,1612,1613,1615,1617,1619,1622,1625,1629,1634,1641,1649,1658,1672,1685,1697,1708,1721,1727,1730,1731,0,0,1416,1412,1409,1410,1411,1413,1415,1419,1423,1429,1436,1444,1453,1464,1476,1489,1502,1513,1523,1535,1546,1553,1561,1566,1572,1576,1578,1581,1590,1596,1602,1588,1619,0,0,0,0,0,1882,1894,1910,1938,1951,1964,1971,2201,2254,2257,2262,2272,2275,2308,2281,2306,2307,2339,0,0,0,0,0,0,0,0,2291,2295,2301,2306,2309,0,0,0,0,0,1871,1890,1888,1889,0,0,0,0,0,0,0,0,0,0,0,0,0,0,0,0,0,0,0,0,1628,1629,1635,1639,1642,0,0,0,1853,1913,1912,1901,1890,1874,0,0,0,0,1757,1753,0,1667,1641,1686,1696,1638,1731,1739,1747,1754,1757,1759,1758,0,1578,1551,1548,1552,1531,1524,1515,1515,1522,1530,1536,1549,1560,1572,1582,0,0,2591,2586,2582,0,0,0,0,0,0,0,0,0,0,0,0,0,0,0,0,0,0,0,0,0,0,0,0,0,0,0,0,0,0,0,0,0,0,0,0,0,2609,2600,2611,2610,2611,2612,2612,2612,2610,2627,2612,0,0,0,0,0,0,0,0,0,0,0,0,0,0,0,0,0,0,0,0,0,0,0,0,0,579,575,0,0,0,0,0,0,0,0,0,659,653,652,650,649,647,646,645,645,644,644,644,644,644,644,644,644,644,644,644,644,644,643,643,643,643,643,643,643,643,643,643,643,643,643,643,643,643,643,643,643,643,643,643,643,643,643,643,643,643,643,643,643,643,643,643,643,643,643,643,643,643,643,643,643,643,643,643,643,643,643,643,643,643,643,644,644,644,645,645,0,0,0,0,0,0,0,0,0,0,0,0,0,0,0,0,0,0,0,0,0,0,1665,1643,1639,1635,0,0,1579,1587,1590,0,0,0,0,0,0,0,0,0,0,0,0,0,0,0,0,0,0,0,0,0,0,0,0,1973,1970,1966,1928,1834,1840,1832,1824,1816,1810,1802,1793,1785,1776,1765,1755,1744,1733,1718,1703,1684,1664,1620,1603,1594,1588,1600,1595,1553,1543,1525,1434,1431,1414,1410,1407,1404,1397,1395,7034,7087,7091,7083,7071,7057,7044,7036,7036,7043,7055,7068,7078,7079,7068,7044,7007,6961,6910,6858,6806,6755,6707,6662,6621,6583,6552,6529,6501,6474,6441,6428,6405,6410,6415,6434,6471,6510,6556,6603,6649,6692,6730,6760,6779,6787,6784,6767,6736,6691,6631,6557,6477,6401,6339,6293,6265,6254,6262,6286,6273,6555,6544,6491,6397,6037,5950,5822,5712,5650,5618,5614,5629,5935,0,0,13738,14173,14253,13953,13902,13592,0,0,0,0,0,0,0,4034,3974,0,3875,3829,3804,3781,3773,3751,3732,3713,3700,3690,3631,3641,3617,3592,3570,3549,3483,3475,3492,3481,3471,3462,3453,3444,3433,3422,3409,3395,3380,3364,3346,3327,3305,3283,3260,3239,3220,3203,3188,3175,3163,3152,3141,3131,3121,3111,3102,3094,3087,3081,3076,3097,3096,3095,3094
0,0,0,0,0,0,0,0,0,0,0,0,0,0,0,0,0,0,0,0,0,0,0,0,0,0,0,1600,1601,1602,1601,1601,1600,1599,1598,1598,1597,1597,1596,1596,1596,1596,1596,1597,1597,1598,1598,1599,1600,1601,1603,1604,1606,1608,1609,1610,1611,1611,1611,1611,1612,1612,1613,1614,1615,1617,1619,1622,1626,1631,1637,1645,1655,1670,1687,1701,1715,1723,1728,1731,1746,0,1405,1403,1402,1401,1403,1405,1408,1412,1416,1422,1428,1435,1443,1451,1461,1471,1482,1493,1502,1512,1526,1538,1545,1555,1560,1570,1574,1577,0,0,0,0,0,0,0,0,0,0,0,1889,1900,1914,1970,1978,1998,1968,0,2229,2270,2218,2289,2304,2317,2328,2342,2352,2313,2339,2379,0,0,0,0,0,2293,2292,2296,2301,2305,2309,2314,0,0,1915,1901,1881,1873,1878,1876,1872,1842,1836,1831,0,0,0,0,0,0,0,0,0,0,0,0,0,0,0,1620,1622,1628,1632,1645,0,0,0,0,0,1907,1908,1909,1909,1897,0,0,0,0,0,0,1593,1606,1625,1651,1636,1709,1728,1737,1746,1753,1757,0,0,0,1445,1448,1451,1454,1477,1480,1492,1496,1503,1513,1522,1537,1549,1557,0,0,2605,2603,2582,2579,2562,0,0,0,0,0,0,0,0,0,0,0,0,0,0,0,0,0,0,0,0,0,0,0,0,0,0,0,0,0,0,0,0,0,0,0,0,0,0,2605,2609,2611,2612,2616,2620,2623,0,0,0,0,0,0,0,0,0,0,0,0,0,0,0,0,0,0,0,0,0,0,0,0,0,0,0,0,578,0,0,0,0,0,0,0,0,661,660,654,653,651,649,647,646,645,645,644,644,644,644,644,644,644,644,644,644,644,644,644,644,643,643,643,643,643,643,643,643,643,643,643,643,643,643,643,643,643,643,643,643,643,643,643,643,643,643,643,643,643,643,643,643,643,643,643,643,643,643,643,643,643,643,643,643,643,643,643,643,643,643,643,643,644,644,644,644,645,0,0,0,0,0,0,0,0,0,0,0,0,0,0,0,0,0,0,0,0,0,1667,1651,1646,1625,1617,1606,0,1596,1595,0,0,0,0,0,0,0,0,0,0,0,0,0,0,0,0,0,0,0,0,0,0,0,0,0,0,1943,1937,1931,1825,1815,1813,1809,1794,1796,0,0,0,0,1763,1753,1743,1732,1613,1604,1591,1563,1570,1566,1562,1567,1596,1561,1551,1542,1526,1427,1412,1407,1403,1400,1398,1393,1392,7018,7060,7098,7089,7074,7057,7041,7030,7027,7031,7041,7052,7060,7059,7046,7019,6979,6930,6877,6823,6770,6720,6673,6631,6594,6558,6533,6519,6496,6474,6446,6424,6420,6418,6423,6442,6486,6529,6579,6630,6680,6726,6765,6795,6812,6815,6805,6778,6737,6680,6607,6522,6430,6347,6282,6239,6218,6218,6249,6306,6311,6304,6602,6549,6171,6094,6002,5831,5682,5609,5572,5574,5578,5416,0,0,14209,14106,14089,13966,13896,13759,13683,13481,12457,0,0,0,0,0,0,0,3773,3765,3736,3711,3761,3742,3727,3717,3702,3684,3664,3638,3609,3580,3558,3536,3514,3452,3444,3437,3431,3441,3432,3424,3414,3403,3393,3380,3367,3353,3337,3319,3299,3278,3257,3237,3219,3203,3189,3176,3164,3154,3143,3133,3123,3114,3105,3096,3089,3083,3077,3096,3095,3094,3094
0,0,0,0,0,0,0,0,0,0,0,0,0,0,0,0,0,0,0,0,0,0,0,0,0,0,0,1590,1598,1599,1598,1598,1597,1596,1596,1596,1596,1596,1596,1596,1596,1597,1597,1597,1597,1598,1598,1599,1600,1601,1602,1604,1605,1607,1609,1610,1611,1611,1612,1612,1612,1612,1612,1613,1614,1615,1617,1619,1623,1627,1634,1641,1651,1663,1681,1696,1707,1752,1760,1764,0,0,0,1390,1392,1391,1395,1398,1402,1407,1413,1420,1426,1433,1441,1448,1456,1464,1474,1483,1491,1500,1516,1529,1538,1530,1534,0,0,0,0,0,0,0,0,0,2001,2001,2003,1896,1898,1896,1905,1916,1975,1982,1994,2009,0,2284,2298,2282,2297,2311,2323,2334,2346,2358,2344,2336,2373,2351,2337,2324,2314,2305,2296,2294,2296,2300,2304,2308,2314,0,0,1913,1901,1884,1870,1880,1876,1872,1869,1839,1834,1828,0,0,0,1811,0,0,0,0,0,0,0,0,0,0,1619,1621,1628,1640,1644,1649,0,0,0,0,1913,1913,1916,1915,0,0,0,0,0,0,0,0,1606,1630,1632,1635,1636,0,0,0,0,0,1413,1415,1420,1432,1436,1439,1443,1460,1464,1473,1477,1486,1499,1510,1523,1534,0,0,0,2604,2599,2579,2577,2577,0,0,0,0,0,0,0,0,0,0,0,0,0,0,0,0,0,24650,24151,0,0,0,0,0,0,0,0,0,0,0,0,0,0,0,0,0,0,0,0,0,0,0,0,0,0,0,0,0,0,0,0,0,0,0,0,0,0,0,0,0,0,0,0,0,0,0,0,0,0,0,0,0,0,0,0,0,0,0,0,0,0,0,658,660,655,653,652,649,647,646,645,644,644,644,644,644,644,644,644,644,644,644,644,644,644,644,644,643,643,643,643,643,643,643,643,643,643,643,643,643,643,643,643,643,643,643,643,643,643,643,643,643,643,643,643,643,643,643,643,643,643,643,642,642,642,642,643,643,643,643,643,643,643,643,643,643,643,643,643,644,644,644,645,0,0,0,0,0,0,0,0,0,0,0,0,0,0,0,0,0,0,0,0,0,0,1658,1624,1618,1612,1606,0,1584,1575,1581,0,0,0,0,0,0,0,0,0,0,0,0,0,0,0,0,0,0,0,0,0,0,0,0,0,0,1826,1821,1802,1800,1801,1788,1793,0,0,0,0,0,1536,1540,1527,0,0,0,1575,1557,1550,1547,1545,1558,1563,1558,1550,1543,1426,1414,1405,1402,1398,1395,1392,1389,1388,0,7104,7126,7113,7095,7074,7053,7037,7028,7027,7032,7039,7043,7039,7022,6991,6948,6896,6841,6788,6736,6688,6645,6607,6576,6540,6519,6516,6494,6474,6451,6427,6423,6424,6428,6451,6509,6556,6611,6666,6716,6760,6796,6821,6833,6830,6812,6777,6726,6658,6576,6481,6380,6292,6226,6184,6168,6175,6229,6332,6346,6344,6651,6597,6735,6673,6061,5567,5626,5546,5511,5529,5528,5325,0,13633,14036,14009,13957,13877,13798,13642,13553,13400,13322,12550,12470,12230,12157,12041,11962,0,0,3762,3737,3710,3687,3738,3725,3712,3808,3683,3662,3641,3582,3574,3552,3530,3505,3489,3426,3418,3412,3422,3412,3403,3393,3384,3374,3364,3352,3340,3325,3309,3291,3272,3253,3235,3218,3204,3190,3178,3167,3157,3146,3136,3126,3116,3106,3097,3089,3082,3076,3072,3068,3064,3086
0,0,0,0,0,0,0,0,0,0,0,0,0,0,0,0,0,0,0,0,0,0,0,0,0,0,0,1594,1597,1597,1596,1596,1595,1595,1594,1595,1595,1596,1596,1597,1597,1598,1598,1598,1598,1598,1599,1599,1600,1601,1602,1603,1605,1607,1608,1610,1611,1612,1612,1612,1612,1612,1612,1612,1612,1613,1614,1616,1619,1623,1630,1637,1649,1657,1661,1682,0,0,0,0,0,1367,1361,1367,1372,1381,1385,1390,1396,1402,1410,1417,1424,1431,1438,1444,1450,1456,1466,1473,1480,1489,1492,1476,1500,1521,1525,0,0,0,0,0,0,0,0,2012,2011,2000,1939,1897,1900,1901,1908,1917,1928,1983,1993,2004,0,2261,2278,2289,2303,2315,2325,2336,2348,2360,2349,2313,2339,2347,2334,2322,2312,2304,2297,2295,2296,2299,2302,2305,0,0,0,1914,1902,1879,1872,1881,1877,1872,1869,1841,1836,0,0,0,1818,1816,1814,1817,0,0,0,0,0,0,0,0,0,0,0,0,0,0,0,0,0,0,0,0,0,0,0,0,0,0,0,0,1608,1596,1609,1625,1608,1628,1635,0,0,0,0,1390,1401,1403,1407,1416,1421,1429,1434,1443,1448,1456,1462,1471,1487,1497,0,0,0,0,0,2599,2595,2591,2573,2574,0,0,0,0,0,0,0,0,0,0,39131,39078,36201,34409,32006,29266,26504,25023,24328,0,0,0,0,0,0,0,0,0,0,0,0,0,0,0,0,0,0,0,0,0,0,0,0,0,0,0,0,0,0,0,0,0,0,0,0,0,0,0,0,0,0,0,0,0,0,0,0,0,0,0,0,0,0,0,0,0,0,0,0,0,0,0,661,657,656,659,659,648,647,646,645,644,644,644,643,643,643,644,644,644,644,644,644,644,644,644,644,644,643,643,643,643,643,643,643,643,643,643,643,643,643,643,643,642,642,642,642,642,643,643,643,643,643,643,643,643,643,643,643,643,643,642,642,642,642,642,642,642,642,642,642,642,642,642,642,643,643,643,643,643,644,644,644,0,0,0,0,0,0,0,0,0,0,0,0,0,0,0,0,0,0,0,0,0,0,0,0,0,1579,1595,1576,1579,1571,1577,0,0,0,0,0,0,0,0,0,0,0,0,0,0,0,0,0,0,0,0,0,0,0,0,0,0,0,0,1796,1794,1781,1780,1778,0,0,0,0,1537,1541,1539,1541,1543,1533,1539,1525,1555,1546,1549,1509,1551,1478,1477,1490,0,1416,1407,1400,1396,1392,1389,1387,1385,1384,7254,7215,7162,7145,7123,7097,7070,7048,7032,7024,7022,7023,7022,7014,6993,6958,6912,6859,6804,6754,6705,6662,6625,6594,6568,6530,6483,6521,6496,6475,6456,6488,6474,6427,6473,6490,6539,6590,6653,6710,6758,6797,6826,6841,6846,6838,6815,6771,6712,6637,6547,6445,6338,6247,6177,6133,6117,6124,6205,6331,6397,6397,6693,6879,6863,6820,6654,5627,5618,5493,5455,5398,5388,0,14359,13947,13957,13901,13832,13738,13646,13531,13426,13284,13051,13200,12550,12449,12347,12243,12146,12273,11646,11240,0,0,0,3658,3637,3620,3819,3586,3658,3638,3609,3594,3569,3542,3500,3491,3412,3402,3395,3387,3393,3384,3374,3364,3356,3346,3336,3325,3312,3298,3282,3266,3249,3233,3218,3205,3192,3181,3170,3160,3149,3139,3128,3117,3107,3096,3087,3079,3072,3066,3061,3058,3055
0,0,0,0,0,0,0,0,0,0,0,0,0,0,0,0,0,0,0,0,0,0,0,0,0,0,1607,1596,1597,1597,1596,1595,1594,1594,1594,1594,1595,1596,1597,1598,1599,1599,1599,1599,1599,1600,1600,1600,1601,1601,1602,1603,1605,1606,1608,1610,1611,1612,1612,1612,1612,1612,1611,1611,1611,1611,1612,1614,1616,1620,0,0,0,0,0,0,0,0,1328,1334,1340,1346,1353,1359,1364,1371,1377,1382,1389,1397,1405,1413,1420,1427,1433,1439,1442,1447,1459,1465,1462,1457,1452,0,0,1516,1519,0,0,0,0,0,0,0,2024,2021,2023,2007,1897,1899,1902,1904,1909,1916,1968,1928,0,0,0,0,2283,2293,2307,2316,2325,2334,2346,2361,2356,2355,2355,2341,2330,2319,2310,2303,2298,2295,2296,2298,2301,2303,0,0,0,0,1902,1877,1886,1867,1876,1872,1869,1866,1838,0,0,0,1822,1819,1818,1819,1819,0,0,0,0,0,0,0,0,0,0,0,0,0,0,0,0,0,0,0,0,0,0,0,0,0,0,0,0,1630,1622,1626,1630,1632,1634,0,0,1371,1372,1380,1386,1387,1391,1414,1408,1413,1420,1428,1434,1442,1449,1462,0,0,0,0,0,0,0,2584,2591,2588,2586,2572,0,0,0,0,0,0,0,49745,37298,51402,49869,47632,38017,35664,32204,24142,22536,20782,21351,0,0,0,0,0,0,0,0,0,0,0,0,0,0,0,0,0,0,0,0,0,0,0,0,0,0,0,0,0,0,0,0,0,0,0,0,0,0,0,0,0,0,0,0,0,0,0,0,0,0,0,0,0,0,0,0,0,0,0,0,0,0,0,0,658,656,655,660,648,646,645,645,644,644,643,643,643,643,643,643,644,644,644,644,644,644,644,644,644,643,643,643,643,643,643,643,643,643,643,643,643,643,642,642,642,642,642,642,642,642,642,643,643,643,643,643,643,643,643,643,643,642,642,642,642,642,642,642,642,642,642,642,642,642,642,642,642,643,643,643,643,643,644,644,0,0,0,0,0,0,0,0,0,0,0,0,0,0,0,0,0,0,0,0,0,0,0,0,0,1582,1579,1571,1573,0,0,0,0,0,0,0,0,0,0,0,0,0,0,0,0,0,0,0,0,0,0,0,0,0,0,0,0,0,0,1800,1804,1804,1804,1790,1788,0,0,0,1536,1540,1541,1543,1543,1530,1534,1549,1530,1535,1522,1501,0,1461,1414,1409,1418,1405,1400,1394,1390,1387,1384,1382,1381,1380,7254,7222,7189,7170,7145,7115,7083,7054,7032,7016,7006,7001,6993,6979,6954,6917,6869,6817,6765,6721,6679,6643,6614,6591,6463,6327,6306,6422,6498,6530,6469,6476,6468,6462,6482,6500,6567,6621,6686,6744,6787,6818,6840,6855,6855,6842,6818,6890,6704,6623,6527,6421,6307,6213,6141,6098,6079,6086,6323,6393,0,6225,6454,6949,6938,6907,5665,5593,5576,5556,5405,5505,5412,13819,14018,13929,13899,13801,13706,13588,13485,13377,13268,13134,12962,12755,12548,12413,12282,12151,12015,11831,11690,11584,11384,11116,11007,10942,0,0,3648,3714,3601,3591,3583,3581,3568,3538,3513,3485,3453,3516,3361,3372,3364,3368,3357,3347,3340,3331,3321,3311,3300,3287,3274,3259,3245,3231,3218,3206,3195,3184,3173,3162,3152,3141,3130,3118,3106,3094,3084,3074,3066,3059,3053,3049,3047
0,0,0,0,0,0,0,0,0,0,0,0,0,0,0,0,0,0,0,0,0,0,0,0,0,0,0,1597,1598,1597,1596,1595,1594,1594,1594,1594,1595,1597,1598,1599,1600,1600,1601,1601,1601,1601,1602,1602,1602,1602,1603,1604,1605,1606,1608,1609,1611,1612,1612,1612,1612,1612,1611,1610,1610,1610,1610,1610,1613,1612,0,0,0,0,0,0,1303,1310,1320,1326,1333,1339,1345,1351,1357,1363,1369,1375,1383,1391,1399,1407,1415,1421,1427,1432,1434,1437,1460,1468,1471,1473,0,0,0,0,0,0,0,0,0,0,0,0,2028,2028,2032,2012,1898,1900,1903,1905,1910,1914,1919,1921,1912,1910,1909,0,0,0,2309,2316,2323,2330,2343,0,0,0,0,2332,2324,2315,2308,2302,2298,2295,0,0,0,0,0,0,0,0,1881,1877,1874,1867,1862,1872,1869,1866,1864,1838,1833,1827,1845,1822,1820,1820,1820,0,0,0,0,0,0,0,0,0,0,0,0,0,0,0,0,0,0,0,0,0,0,0,0,0,0,0,0,0,0,0,0,0,0,0,0,1366,1359,1370,1371,1356,1364,1371,1388,1398,1407,1416,1423,1432,1440,1456,0,0,0,0,0,0,0,0,0,0,0,0,0,0,0,0,0,64958,55643,54877,57751,58497,50109,48188,41314,38965,27335,24736,23058,20992,20517,0,0,0,0,0,0,0,0,0,0,0,0,0,0,0,0,0,0,0,0,0,0,0,0,0,0,0,0,0,0,0,0,0,0,0,0,0,0,0,0,0,0,0,0,0,0,0,0,0,0,0,0,0,0,0,0,0,0,0,0,0,0,0,0,655,655,652,660,648,646,645,645,644,644,643,643,643,643,643,643,643,643,643,643,644,644,644,644,644,643,643,643,643,643,643,643,643,643,643,643,643,643,642,642,642,642,642,642,642,642,642,642,643,643,643,643,643,643,643,643,642,642,642,642,642,642,642,642,642,642,642,642,642,642,642,642,642,643,643,643,643,644,644,644,0,0,0,0,0,0,0,0,0,0,0,0,0,0,0,0,0,0,0,0,0,0,0,0,0,0,1555,1538,1537,1537,1549,0,0,0,0,0,0,0,0,0,0,0,0,0,0,0,0,0,0,0,0,0,0,0,0,0,0,0,0,1796,1801,1802,1802,1794,1792,1813,1753,1744,1528,1554,1537,1535,1532,1528,1534,1515,1540,1503,1506,1483,1432,1422,1414,1420,1411,1399,1394,1388,1384,1381,1379,1377,1376,1375,7254,7225,7201,7180,7154,7121,7087,7053,7025,7002,6985,6973,6957,6936,6907,6868,6820,6772,6726,6692,6659,6634,6614,6487,6472,6468,6451,6430,6492,6540,6515,6467,6451,6450,6443,6432,6394,6944,7042,6776,6813,6836,6850,6861,6860,6846,6952,6794,6726,6647,6547,6426,6307,6190,6119,6074,6059,6059,6321,6424,6136,6025,6084,5831,5832,5709,5622,5558,5524,5494,5410,0,0,13984,13983,13881,13956,13695,13586,13436,13326,13229,13129,13012,12871,12706,12541,12400,12269,12124,11972,11780,11609,11442,11192,10999,10812,10649,10611,10585,0,0,0,0,0,3707,3573,3557,3510,3481,3444,3510,3348,3346,3351,3356,3333,3332,3327,3318,3309,3300,3290,3279,3267,3255,3242,3230,3219,3208,3197,3186,3176,3165,3154,3142,3130,3117,3104,3091,3079,3068,3059,3051,3045,3040,3038
0,0,0,0,0,0,0,0,0,0,0,0,0,0,0,0,0,0,0,0,0,0,0,0,0,0,0,1605,1598,1597,1596,1595,1594,1594,1594,1595,1596,1597,1599,1601,1601,1602,1602,1602,1603,1603,1603,1604,1604,1604,1604,1604,1605,1606,1608,1609,1611,1612,1612,1613,1612,1612,1611,1610,1609,1609,1609,1609,1607,0,0,0,0,0,0,1282,1298,1304,1312,1318,1325,1331,1338,1344,1350,1356,1363,1369,1376,1384,1393,1401,1409,1415,1420,1425,1425,1448,1456,0,0,0,0,0,0,0,0,0,0,0,0,0,0,0,2030,2033,2040,2020,1899,1902,1904,1906,1910,1913,1916,1916,1911,1909,1909,0,0,0,0,2316,2321,2326,0,0,0,0,0,2326,2319,2313,2306,2301,2298,0,0,0,0,1876,0,0,0,1916,1904,1881,1877,1871,1862,1857,1868,1866,1865,1839,1835,1858,1861,1836,1836,1836,1835,0,0,0,0,0,0,0,0,0,0,0,0,0,0,0,0,0,0,0,0,0,0,0,0,0,0,0,0,0,0,0,0,0,0,0,1349,1363,1365,1366,1358,1333,1343,1356,1373,1384,1396,1406,1415,1421,1429,0,0,0,0,0,0,0,0,0,0,0,0,0,0,0,0,0,0,56953,56113,55245,59637,56239,48662,47735,42872,40984,41484,25388,23764,0,0,0,0,0,0,0,0,0,0,0,0,0,0,0,0,0,0,0,0,0,0,0,0,0,0,0,0,0,0,0,0,0,0,0,0,0,0,0,0,0,0,0,0,0,0,0,0,0,0,0,0,0,0,0,0,0,0,0,0,0,0,0,0,0,657,0,650,652,651,649,647,646,645,644,644,643,643,643,643,643,643,643,643,643,643,643,643,643,643,643,643,643,643,643,643,643,643,643,643,643,643,643,642,642,642,642,642,642,642,642,642,642,642,643,643,643,643,643,643,642,642,642,642,642,642,642,642,642,642,642,642,642,642,642,642,642,642,642,643,643,643,643,644,644,644,0,0,0,0,0,0,0,0,0,0,0,0,0,0,0,0,0,0,0,0,0,0,0,0,0,0,0,1530,1531,1530,0,0,0,0,0,0,0,0,0,0,0,0,0,0,0,0,0,0,0,0,0,0,0,0,0,0,0,0,0,1793,1798,1808,1809,1810,1776,1774,1771,1747,0,1537,1537,1534,1530,1525,1517,1526,1500,1511,1472,1464,1447,1432,1422,1414,1400,1394,1388,1383,1379,1376,1374,1372,1371,1371,7244,7215,7195,7174,7149,7116,7081,7046,7015,6988,6964,6947,6922,6895,6862,6822,6775,6731,6693,6674,6653,6639,6629,6505,6495,6484,6465,6442,6417,6519,6487,6460,6442,6364,6361,6316,6495,6945,7069,7158,7195,7203,6852,6866,6817,6709,6759,6426,6373,6610,6409,6356,6269,6234,6228,6144,6251,6254,6227,20383,20382,0,0,0,0,5718,5537,5495,5471,5447,0,0,0,13991,13971,13822,13425,13678,13506,13303,13186,13108,13044,12952,12841,12710,12549,12407,12243,12075,11899,11764,11566,11384,11090,10938,10803,10704,10602,10487,10332,9989,0,0,0,0,0,3656,3627,3592,3553,3370,3337,3347,3341,3346,3331,3320,3320,3311,3302,3293,3284,3274,3264,3252,3241,3231,3220,3210,3199,3188,3177,3166,3155,3142,3129,3115,3101,3087,3074,3062,3051,3042,3036,3031,3028
0,0,0,0,0,0,0,0,0,0,0,0,0,0,0,0,0,0,0,0,0,0,0,0,0,0,0,0,1602,1605,1605,1595,1594,1593,1598,1597,1597,1597,1597,1602,1602,1603,1603,1603,1604,1605,1606,1606,1606,1605,1605,1605,1606,1607,1608,1609,1611,1612,1613,1613,1613,1612,1611,1610,1609,1608,1608,1606,0,0,0,0,0,0,0,1279,1294,1298,1303,1310,1317,1324,1332,1338,1344,1350,1358,1366,1373,1381,1389,1397,1403,1408,1414,1420,1417,1444,0,0,0,0,0,0,0,0,0,0,0,0,0,0,0,0,2023,2023,2045,2028,2029,1903,1905,1939,1910,1913,1915,1949,1909,1909,0,0,0,0,0,0,2353,2353,2357,0,0,0,0,2323,2317,2311,2304,2301,2298,0,0,0,0,1877,0,0,0,1916,1906,1881,1877,1880,1876,1858,1853,1866,1865,1840,1836,1860,1863,1877,1836,1836,0,0,0,0,0,0,0,0,0,0,0,0,0,0,0,0,0,0,0,0,0,0,0,0,0,0,0,0,0,0,0,0,0,0,0,0,1352,1356,1354,1352,1349,1318,1328,1341,1360,1373,1388,1399,1409,1419,0,0,0,0,0,0,0,0,0,0,0,62645,62012,61204,60726,59082,58184,62081,60614,57216,56451,56139,61510,59113,46248,46450,46031,46617,0,0,0,0,0,0,0,0,0,0,0,0,0,0,0,0,0,0,0,0,0,0,0,0,0,0,0,1274,0,0,0,0,1272,0,0,0,0,0,0,0,0,0,0,0,0,0,0,0,0,0,0,0,0,0,0,0,0,0,0,0,0,0,0,0,0,0,0,0,0,0,650,653,652,649,647,646,645,644,644,644,643,643,643,643,643,643,643,643,643,643,643,643,643,643,643,643,643,643,643,643,643,643,643,643,643,643,642,642,642,642,642,642,642,642,642,642,642,642,642,643,642,642,642,642,642,642,642,642,642,642,642,642,642,642,642,642,642,642,642,642,642,642,643,643,643,644,644,644,644,2889,2873,2869,2868,2883,0,0,0,0,0,0,0,0,0,0,0,0,0,0,0,0,0,0,0,0,0,0,0,0,0,0,0,0,0,0,0,0,14227,13329,12078,11488,11283,0,0,0,0,0,0,0,0,0,0,0,0,0,0,0,0,1798,1779,1779,1804,1805,1805,1779,1777,1800,1735,1743,0,0,1532,1527,1521,1513,1506,1496,1489,1463,1461,1445,1427,1416,1403,1396,1390,1384,1379,1375,1372,1369,1368,1367,1366,7214,7191,7175,7155,7132,7102,7072,7038,7010,6980,6951,6932,6898,6865,6829,6788,6742,6704,6674,6676,6667,6666,6551,6544,6538,6518,6491,6461,6403,6381,6354,6200,6201,6221,6211,6227,6258,6199,0,7201,7235,7236,6881,6891,6684,0,30775,30672,30167,30036,29017,29438,28342,6218,6136,0,6123,5923,20549,20456,20431,20466,0,0,0,0,5491,5465,5449,5420,5354,5339,0,13387,13984,13933,13647,13129,13381,13070,13061,13015,12976,12908,12826,12721,12591,12450,12286,12105,11938,11723,11490,11293,11082,10855,10717,10601,10497,10410,10298,9910,9698,9606,9541,9439,9359,0,0,0,0,3490,3373,3346,3339,3328,3314,3324,3310,3304,3303,3294,3286,3276,3265,3254,3243,3233,3222,3211,3200,3189,3178,3166,3154,3141,3127,3112,3097,3082,3068,3055,3043,3034,3026,3022,3019
0,0,0,0,0,0,0,0,0,0,0,0,0,0,0,0,0,0,0,0,0,0,0,0,0,0,0,0,0,0,0,0,0,0,0,0,1594,1595,1596,1602,1602,1603,1606,1606,1608,1607,1608,1608,1608,1607,1606,1606,1606,1607,1610,1611,1612,1611,1612,1611,1611,1613,1612,1609,0,0,0,0,0,0,0,1138,1132,1129,0,1277,1290,1293,1274,1281,1289,1318,1326,1332,1340,1348,1356,1362,1369,1377,1386,1393,1398,1404,1409,1412,1411,1395,0,0,0,0,0,0,0,0,0,0,0,0,0,0,0,0,0,0,0,0,0,0,0,0,0,0,1996,1911,1909,0,0,0,0,0,0,2356,0,0,0,0,0,0,0,0,0,0,2302,2300,0,0,0,0,0,0,0,0,0,0,0,0,0,0,0,0,0,0,0,0,0,0,0,0,0,0,0,0,0,0,0,0,0,0,0,0,0,0,0,0,0,0,0,0,0,0,0,0,0,0,0,0,0,0,0,0,0,0,0,0,0,0,1267,1252,1253,1266,1281,1302,1312,1326,1351,1363,1377,0,0,0,0,0,0,0,0,0,0,0,0,0,0,62974,62185,61461,60784,60458,59212,46145,46398,46915,47035,45741,46475,37820,43574,44552,41199,41280,0,0,0,0,0,0,0,0,0,0,0,0,0,0,0,0,0,0,0,0,0,0,0,1288,1282,1280,1273,1276,1271,1269,1271,1270,1269,1268,1268,1266,1264,1262,1260,1260,0,0,0,0,0,0,0,0,0,0,0,0,0,0,0,0,0,0,0,0,0,0,0,0,0,0,0,0,0,656,654,653,652,649,647,646,645,645,644,644,644,643,643,643,643,643,643,643,643,643,643,643,643,643,643,643,643,643,643,643,643,643,643,643,643,643,642,642,642,642,642,642,642,642,642,642,642,642,642,642,642,642,642,642,642,642,642,642,642,642,642,642,642,642,642,642,642,642,642,642,642,643,643,643,643,644,644,644,644,2869,2856,2804,2795,2847,0,0,0,0,0,0,0,0,0,0,0,0,0,0,0,0,0,0,0,0,0,0,0,0,0,0,0,0,0,0,0,13810,13979,12616,11892,11316,11031,10868,0,0,0,0,0,0,0,0,0,0,0,0,0,0,0,1803,1777,1776,1776,1776,1800,1765,1759,1757,1751,1723,0,0,1530,1524,1518,1508,1501,1493,1485,1474,1461,1444,1414,1405,1399,1392,1387,1381,1376,1372,1368,1365,1363,1362,1362,1359,7166,7148,7121,7097,7059,7055,7014,6994,6979,6953,6936,6891,6851,6813,6774,6725,6692,6670,6703,6707,6720,6701,6667,6661,6571,6531,6487,6339,27095,26815,26375,19981,19952,0,0,0,0,6102,6101,7161,7179,7193,0,29336,28707,29017,29098,28975,28651,28161,27998,27615,26488,23849,23020,21821,21270,20726,20563,20480,20456,0,0,0,0,0,0,0,5338,5341,5337,5293,13429,13920,13935,13595,13479,12909,12945,12990,12969,12947,12909,12853,12772,12661,12522,12355,12084,11936,11701,11416,11201,10988,10755,10601,10478,10372,10283,10184,10100,9975,9893,9496,9298,9240,9194,9185,9012,8926,0,0,0,0,0,3328,3289,3337,3314,3306,3297,3290,3286,3274,3261,3249,3237,3225,3213,3201,3189,3177,3164,3152,3138,3123,3108,3092,3076,3061,3047,3035,3025,3018,3013,3010
