0,0,0,0,0,20653,20667,20660,20669,20713,20812,20996,21345,22028,22341,22275,22471,22112,0,0,0,0,0,0,0,0,0,0,0,0,0,0,0,0,1666,1720,1685,1720,1716,1662,1663,1658,1645,1638,1634,1630,1627,1624,1622,1621,1621,1621,1621,1621,1622,1623,1624,1625,1625,1625,1625,1625,1624,1624,1625,1626,1628,1631,1635,1640,1646,1653,1661,1669,1678,1687,1695,1702,1707,1712,1715,1718,1721,1726,0,0,0,0,0,2508,2495,2488,2476,2467,2448,2431,2425,2413,2406,2401,2397,2393,2349,2172,1994,1990,1987,1985,1983,1982,1983,1986,1990,1995,2000,2005,2009,2013,2015,2017,2017,2019,2021,2023,2026,2029,2031,2038,2041,2042,2043,2045,2049,2053,2058,2061,2065,2069,2073,2081,2082,2080,2076,2067,2063,2056,2042,2037,2032,2037,2031,1964,1981,1966,1952,1943,1934,1929,1925,1925,1926,1930,1936,1945,1955,1975,1984,1995,2002,2010,2020,2030,2033,2036,2040,2043,2046,2048,2051,2053,2056,2059,2063,2067,2073,2079,2085,2090,2094,2096,2095,2100,2105,2109,2113,2118,2179,2185,2191,2198,2149,2126,2157,2156,2152,2143,2130,2121,2111,2100,2076,2073,2071,2073,2079,2089,2104,2122,2146,2176,2212,2252,2292,2329,2361,2387,2407,2421,2428,2428,2421,2409,2392,2374,2355,2337,2321,2306,2294,2285,2278,2279,2286,2297,2313,2336,2358,2379,2402,2419,2430,2437,2438,2435,2428,2417,2405,2393,2383,2376,2375,2379,2386,2388,2393,2396,2398,2400,2399,2397,2395,2398,2396,2395,2394,2395,2399,2403,2407,2412,2415,2419,2417,2405,2381,2343,2307,2277,2242,0,2177,2172,0,0,0,0,0,0,0,0,0,0,0,0,0,0,0,0,0,0,0,0,0,0,0,0,0,0,0,0,0,0,0,0,0,647,646,646,645,645,644,644,644,643,643,643,643,643,643,643,643,643,643,643,643,643,643,643,642,642,642,642,642,642,642,642,642,642,642,642,642,642,642,642,642,642,642,642,642,642,642,642,642,642,642,642,643,643,643,643,643,643,643,642,642,642,642,642,641,641,641,641,642,642,642,642,642,643,643,0,0,0,0,0,0,0,0,0,0,0,0,0,2114,2114,2111,2109,2109,2107,2106,2104,2101,2099,2096,2096,2093,0,0,0,0,0,0,0,0,0,0,0,0,0,0,0,0,0,0,2260,2156,2221,2175,2183,2183,0,2149,2134,2118,2100,2083,2069,2054,2039,2023,2006,1987,1967,1946,1924,1904,1885,1866,1848,1831,1815,1800,1784,1769,1754,1739,1725,1710,1695,1679,1662,1646,1629,1613,1597,1582,1569,1558,1549,1542,1538,1534,1529,7122,6891,7182,6789,6785,6779,6774,6771,6771,6962,6941,6918,6895,6867,6832,6788,6706,6640,6590,6510,6435,6369,6319,6284,6265,6255,6251,6248,6244,6241,6240,6242,6249,6261,6276,6293,6308,6320,6327,6329,6328,6324,6319,6314,6309,6300,6286,6265,6238,6207,6173,6139,6107,6077,6048,6013,5983,5951,5921,5879,5829,5771,5705,5635,5565,5496,5430,5365,5301,5237,5170,5103,5036,4970,4907,4845,4783,4719,4652,4582,4513,4447,4387,4324,4280,4233,4200,4170,4142,4111,4078,4042,4004,3965,3926,3890,3857,3828,3802,3780,3760,3743,3727,3712,3696,3679,3661,3642,3622,3602,3581,3562,3543,3525,3507,3489,3471,3453,3435,3418,3401,3385,3370,3356,3343,3329,3313,3296,3277,3256,3232,3208,3184,3161,3138,3118,3099,3082,3067,3053,3040,3028,3016,3005,2996,2988,2983,2980
0,0,0,0,0,20381,20336,20281,20242,20239,20296,20458,20873,21876,21875,22380,0,0,0,0,0,0,0,0,0,0,0,0,0,0,0,0,0,1639,1652,1664,1664,1655,1650,1646,1647,1643,1635,1630,1627,1624,1622,1620,1619,1619,1619,1619,1620,1620,1621,1622,1623,1624,1625,1625,1625,1625,1625,1625,1626,1627,1630,1633,1638,1643,1650,1657,1666,1675,1685,1694,1702,1709,1715,1719,1719,1721,1728,1732,0,0,0,0,0,2459,2482,2473,2458,2452,2435,2416,2415,2400,2394,2392,2388,2385,0,0,1986,1982,1978,1975,1973,1973,1974,1977,1981,1987,1992,1998,2002,2006,2008,2009,2010,2011,2013,2014,2016,2017,2018,2021,2022,2023,2024,2026,2029,2033,2037,2041,2045,2049,2051,2055,2053,2048,2042,2033,2019,2008,2004,1999,1994,1981,1975,1968,1961,1952,1942,1935,1929,1926,1924,1924,1926,1930,1936,1944,1955,1969,1980,1989,1996,2002,2009,2014,2017,2020,2023,2026,2028,2031,2033,2036,2038,2040,2042,2045,2049,2054,2058,2063,2067,2069,2073,2078,2079,2085,2090,2096,2100,2106,2169,2182,2189,2135,2137,2132,2128,2117,2105,2096,2087,2078,2063,2061,2061,2064,2072,2082,2097,2114,2137,2167,2202,2240,2281,2316,2347,2371,2390,2402,2408,2407,2400,2388,2372,2354,2335,2317,2301,2283,2269,2257,2246,2248,2255,2268,2284,2311,2335,2359,2386,2406,2419,2426,2426,2422,2413,2399,2385,2372,2363,2357,2356,2360,2367,2372,2379,2384,2387,2390,2390,2390,2390,2392,2392,2394,2396,2399,2405,2410,2415,2420,2424,2429,2428,2415,2395,2363,2334,2301,2262,0,0,0,0,0,0,0,0,0,0,0,0,0,0,0,0,0,0,0,0,0,0,0,0,0,0,0,0,0,0,0,0,0,0,648,646,646,646,645,645,645,644,644,644,643,643,643,643,643,643,643,643,643,643,643,643,643,643,643,642,642,642,642,642,642,642,642,642,642,642,642,642,642,642,642,642,642,642,642,642,642,642,642,642,642,642,642,643,643,643,643,643,643,643,642,642,642,642,642,641,641,641,642,642,642,642,643,643,643,644,644,0,0,0,0,0,0,0,0,2094,2107,2109,2110,2104,2098,2104,2104,2103,2102,2099,2097,2094,2091,2089,2089,2087,0,0,0,2565,2552,2547,2532,0,0,0,0,0,0,0,0,0,0,2250,2250,2210,2165,2170,2166,2190,2138,2132,2118,2102,2085,2069,2055,2040,2026,2011,1995,1978,1959,1939,1919,1900,1881,1863,1846,1830,1815,1800,1785,1770,1755,1740,1724,1709,1693,1677,1660,1643,1626,1609,1592,1573,1560,1549,1541,1534,1530,1526,1523,7122,7169,6637,6807,6812,6811,6808,6805,7004,6986,6966,6931,6905,6875,6838,6793,6738,6671,6595,6516,6439,6372,6322,6285,6268,6259,6254,6251,6247,6242,6239,6240,6245,6255,6268,6284,6298,6310,6318,6322,6324,6323,6323,6323,6322,6318,6307,6289,6263,6232,6198,6165,6134,6105,6077,6046,6016,5983,5948,5903,5848,5785,5714,5640,5566,5495,5428,5364,5301,5238,5173,5107,5041,4977,4916,4856,4796,4733,4666,4594,4520,4450,4386,4326,4277,4234,4200,4170,4141,4110,4078,4041,4002,3963,3924,3888,3856,3827,3801,3780,3761,3744,3729,3713,3697,3681,3662,3643,3622,3602,3581,3561,3541,3522,3504,3486,3468,3451,3434,3417,3401,3386,3371,3358,3344,3330,3314,3297,3278,3257,3234,3211,3188,3165,3143,3123,3103,3086,3070,3056,3043,3031,3020,3011,3002,2995,2990,2987
0,0,0,0,0,19964,19926,19812,19710,19646,19643,19766,20257,0,0,0,0,0,0,0,0,0,0,0,0,0,0,0,0,0,1643,1641,1631,1635,1637,1639,1645,1640,1636,1633,1633,1630,1625,1622,1620,1618,1616,1616,1615,1616,1616,1617,1618,1620,1621,1622,1623,1624,1625,1625,1625,1625,1626,1626,1628,1630,1633,1637,1641,1647,1654,1662,1672,1682,1692,1701,1709,1716,1721,1725,1726,1733,1735,1737,0,0,0,0,0,0,2406,2451,2436,2398,2390,2398,2372,2386,2381,2383,2349,0,0,1999,1978,1974,1970,1967,1965,1964,1966,1969,1973,1978,1984,1990,1994,1998,2000,2002,2003,2005,2006,2007,2008,2009,2009,2009,2008,2007,2008,2008,2010,2013,2018,2021,2025,2027,2027,2026,2021,2014,2002,1989,1979,1968,1960,1956,1953,1948,1947,1944,1939,1934,1929,1925,1922,1920,1920,1921,1923,1927,1933,1941,1949,1961,1970,1978,1984,1989,1994,1998,2000,2003,2005,2008,2010,2013,2014,2016,2017,2018,2019,2021,2023,2025,2027,2030,2034,2040,2044,2050,2057,2063,2070,2077,2083,2089,2095,2162,2172,2179,2177,2107,2099,2088,2075,2067,2060,2054,2046,2047,2048,2053,2062,2072,2086,2102,2124,2152,2186,2225,2265,2299,2328,2351,2369,2381,2387,2385,2378,2366,2351,2333,2314,2296,2278,2257,2241,2226,2209,2212,2222,2235,2254,2287,2314,2339,2374,2397,2412,2419,2420,2416,2406,2388,2373,2359,2350,2344,2344,2348,2355,2361,2369,2375,2379,2384,2386,2388,2390,2394,2396,2400,2404,2411,2419,2424,2428,2438,2445,2449,2449,2435,2416,2386,2362,2328,0,0,0,0,0,0,0,0,0,0,0,0,0,0,0,0,0,0,0,0,0,0,0,0,0,0,0,0,0,0,0,0,0,0,0,646,646,646,646,645,645,644,644,644,643,643,643,643,643,643,643,643,643,643,643,643,643,643,643,643,642,642,642,642,642,642,642,642,642,642,642,642,642,642,642,642,642,642,642,642,642,642,642,642,642,642,642,642,643,643,643,643,643,643,643,642,642,642,642,642,642,642,642,642,642,642,643,643,643,644,644,644,0,0,0,0,0,0,0,2087,2090,2102,2104,2097,2103,2097,2100,2100,2098,2095,2092,2089,2086,2083,2080,2080,2080,2085,2618,2594,2576,2571,2565,2549,0,0,0,0,0,0,0,0,0,0,2237,2235,2231,2218,2207,2193,2157,2124,2118,2103,2088,2071,2056,2041,2027,2014,2000,1985,1969,1952,1933,1915,1896,1878,1861,1844,1828,1813,1799,1784,1769,1754,1739,1724,1708,1692,1676,1659,1642,1624,1606,1587,1565,1551,1541,1532,1526,1522,1519,1517,7200,7267,7032,7044,7065,7066,7061,7050,7032,7009,6981,6945,6914,6880,6841,6795,6741,6676,6603,6526,6452,6384,6334,6296,6280,6269,6294,6182,6343,6338,6331,6156,6249,6257,6269,6283,6296,6307,6314,6319,6322,6324,6327,6331,6334,6333,6326,6311,6288,6259,6227,6196,6166,6138,6112,6082,6052,6018,5980,5931,5872,5803,5726,5646,5568,5494,5425,5360,5297,5235,5173,5109,5045,4982,4922,4864,4805,4743,4676,4603,4527,4454,4386,4325,4275,4233,4198,4168,4139,4108,4076,4040,4001,3962,3924,3889,3857,3829,3802,3781,3762,3745,3730,3714,3698,3681,3662,3642,3621,3600,3578,3557,3537,3518,3500,3482,3465,3448,3431,3416,3400,3386,3372,3358,3344,3330,3314,3296,3277,3257,3235,3213,3190,3169,3147,3127,3108,3090,3074,3060,3047,3036,3026,3017,3009,3003,2999,2996
0,0,0,0,20065,19638,19480,19300,19131,19004,18941,19042,19320,0,0,0,0,0,0,0,0,0,0,0,0,0,0,0,0,1653,1644,1638,1627,1628,1628,1628,1631,1627,1625,1623,1622,1620,1617,1615,1614,1613,1612,1612,1612,1613,1614,1615,1617,1619,1620,1622,1623,1624,1625,1626,1626,1626,1627,1628,1629,1632,1635,1639,1645,1651,1658,1667,1677,1687,1698,1708,1716,1722,1727,1730,1736,0,0,0,0,0,0,0,0,0,0,2395,2419,2378,2372,2382,2371,2372,2368,2372,2334,0,0,1982,1970,1966,1963,1960,1958,1957,1958,1961,1965,1970,1976,1981,1986,1990,1992,1994,1996,1998,1999,2000,2000,2001,2000,1998,1995,1993,1991,1991,1991,1993,1996,2000,2002,2002,2000,1996,1989,1979,1967,1952,1942,1933,1927,1923,1922,1920,1920,1919,1918,1916,1913,1911,1910,1910,1911,1913,1916,1920,1926,1933,1941,1949,1958,1965,1970,1974,1977,1980,1983,1985,1987,1989,1991,1992,1994,1995,1995,1995,1995,1995,1995,1996,1998,2001,2005,2011,2017,2024,2031,2038,2046,2054,2060,2065,2070,2142,2155,2171,2168,2135,2069,2058,2041,2035,2031,2029,2026,2031,2033,2039,2048,2058,2070,2084,2104,2132,2165,2204,2247,2280,2308,2330,2346,2358,2364,2362,2356,2344,2330,2313,2294,2275,2256,2231,2213,2195,2166,2171,2185,2201,2221,2265,2294,2321,2366,2392,2409,2417,2418,2414,2404,2392,2369,2354,2344,2337,2337,2341,2348,2355,2363,2370,2375,2381,2384,2389,2394,2401,2404,2412,2419,2428,2440,2444,2446,2474,2490,2570,2489,2459,2440,2407,2385,2364,0,0,0,0,0,0,0,0,0,0,0,0,0,0,0,0,0,0,0,0,0,0,0,0,0,0,0,0,0,0,0,0,0,0,0,646,646,646,645,645,645,644,644,644,643,643,643,643,643,643,643,643,643,643,643,643,643,643,643,642,642,642,642,642,642,642,642,642,642,642,642,642,642,642,642,642,642,642,642,642,642,642,642,642,642,642,642,642,643,643,643,643,643,643,643,643,642,642,642,642,642,642,642,642,642,642,643,643,644,644,644,645,0,0,0,0,0,0,2074,2094,2101,2103,2103,2099,2097,2099,2097,2095,2093,2089,2085,2081,2077,2073,2071,2071,2071,0,2619,2604,2589,2581,2573,2565,0,0,0,0,0,0,0,0,0,0,2241,2216,2211,2224,2174,2151,2131,2115,2105,2090,2074,2059,2043,2029,2016,2003,1990,1976,1962,1946,1928,1910,1892,1875,1858,1840,1825,1811,1796,1782,1768,1753,1738,1722,1706,1690,1675,1659,1643,1623,1604,1583,1556,1542,1532,1524,1518,1515,1512,1511,7218,7034,7069,7066,7102,7105,7100,7087,7066,7038,7004,6970,6925,6886,6843,6796,6743,6682,6614,6542,6473,6415,6371,6328,6317,6313,6208,6196,6185,6178,6174,6175,6182,6193,6282,6293,6303,6312,6318,6321,6324,6327,6331,6337,6343,6345,6342,6331,6311,6285,6256,6227,6199,6172,6146,6118,6088,6053,6012,5960,5896,5822,5741,5656,5572,5494,5422,5356,5293,5232,5171,5109,5047,4986,4926,4869,4811,4750,4684,4610,4533,4458,4388,4325,4274,4232,4196,4165,4136,4106,4073,4038,4001,3963,3927,3893,3862,3834,3804,3784,3764,3746,3730,3713,3697,3679,3660,3639,3618,3596,3574,3553,3532,3513,3494,3477,3460,3444,3428,3413,3399,3385,3371,3357,3343,3328,3312,3294,3275,3255,3234,3212,3191,3170,3150,3130,3111,3094,3078,3064,3052,3042,3033,3025,3019,3013,3010,3007
0,0,0,0,0,19271,19043,18802,18570,18385,18265,18281,0,0,0,0,0,0,0,0,0,0,0,0,0,0,0,0,0,1653,1639,1634,1623,1622,1621,1620,1620,1617,1616,1614,1614,1613,1611,1610,1609,1608,1608,1608,1609,1610,1612,1614,1616,1618,1620,1622,1623,1625,1625,1626,1627,1627,1628,1629,1631,1634,1637,1642,1647,1654,1662,1671,1681,1692,1703,1713,1721,1727,1732,1735,1739,1742,0,0,0,0,0,0,0,0,0,0,2373,2364,2367,2369,2361,2360,2356,0,0,0,0,1968,1963,1960,1957,1954,1952,1952,1953,1955,1958,1963,1968,1973,1977,1980,1983,1985,1987,1989,1991,1992,1991,1992,1989,1986,1981,1976,1973,1970,1969,1969,1972,1975,1976,1975,1970,1964,1955,1944,1931,1919,1909,1902,1897,1894,1894,1893,1895,1895,1896,1896,1895,1895,1895,1896,1898,1901,1905,1909,1915,1921,1928,1936,1943,1950,1954,1957,1960,1962,1964,1965,1967,1968,1969,1970,1970,1970,1970,1969,1968,1967,1967,1968,1970,1973,1978,1984,1991,1999,2007,2016,2025,2032,2037,2041,2044,2126,2141,2014,2008,2117,2099,2029,2003,2001,2000,2001,2003,2013,2015,2022,2031,2040,2049,2060,2077,2106,2139,2181,2230,2261,2288,2309,2324,2337,2344,2342,2336,2325,2312,2296,2278,2260,2241,2227,2190,2170,2119,2128,2147,2165,2185,2247,2279,2303,2346,2390,2411,2419,2420,2420,2405,2394,2379,2352,2341,2334,2333,2327,2345,2351,2360,2368,2373,2374,2379,2392,2404,2410,2415,2427,2437,2449,2464,2464,2503,2526,2549,2551,2543,2528,2510,2469,2446,0,0,0,0,0,0,0,0,0,0,0,0,0,0,0,0,0,0,0,0,0,0,0,0,0,0,0,0,0,0,0,0,0,0,0,0,646,646,645,645,645,645,644,644,644,643,643,643,643,643,643,642,642,642,642,642,642,642,642,642,642,642,642,642,642,642,642,642,642,642,642,642,642,642,642,642,642,642,642,642,642,642,642,642,642,642,642,642,642,643,643,643,643,643,643,643,643,642,642,642,642,642,642,642,642,642,643,643,643,644,644,644,645,0,0,0,0,0,0,2089,2099,2102,2105,2104,2102,2100,2098,2095,2092,2088,2084,2079,2074,2069,2065,2062,2062,2064,0,2625,2614,2601,2592,2584,2569,0,0,0,0,0,0,0,0,0,2180,0,2172,2164,2147,2135,2129,2118,2103,2091,2077,2062,2047,2032,2018,2005,1993,1981,1968,1955,1940,1924,1907,1889,1872,1855,1837,1822,1807,1793,1780,1765,1750,1735,1719,1703,1688,1673,1658,1643,1623,1607,1566,1546,1532,1523,1516,1511,1507,1505,1504,1509,7080,7111,7141,7145,7142,7143,7129,7105,7073,7034,6991,6943,6897,6849,6800,6747,6688,6626,6561,6499,6446,6406,6418,6344,6336,6228,6216,6208,6203,6202,6206,6214,6327,6334,6314,6322,6327,6330,6332,6333,6335,6338,6344,6351,6355,6355,6346,6330,6308,6281,6255,6228,6203,6177,6149,6118,6082,6038,5984,5916,5840,5755,5666,5579,5497,5422,5354,5291,5230,5171,5110,5049,4989,4930,4872,4815,4755,4689,4616,4539,4462,4390,4326,4274,4231,4195,4163,4133,4103,4071,4037,4002,3966,3932,3900,3870,3842,3807,3786,3765,3746,3728,3711,3693,3674,3655,3634,3612,3590,3568,3546,3525,3506,3488,3470,3454,3439,3424,3410,3396,3382,3369,3355,3341,3325,3308,3290,3271,3251,3230,3210,3190,3170,3150,3131,3114,3097,3082,3069,3058,3049,3041,3034,3029,3025,3021,3020
0,0,0,0,19846,18968,18670,18384,18109,17894,17760,17775,0,0,0,0,0,0,0,0,0,0,0,0,0,0,0,0,0,1641,1636,1621,1619,1617,1615,1613,1613,1611,1610,1609,1609,1608,1607,1606,1606,1606,1606,1606,1607,1609,1611,1613,1615,1617,1620,1622,1623,1625,1626,1626,1627,1628,1628,1630,1632,1635,1638,1643,1649,1656,1664,1673,1684,1695,1706,1716,1724,1730,1735,1739,1745,1748,1754,0,0,0,0,0,0,0,0,0,0,2356,2350,2361,2338,2337,2391,0,0,0,1965,1963,1958,1956,1953,1950,1948,1947,1948,1950,1953,1956,1961,1965,1968,1971,1972,1974,1976,1979,1980,1981,1980,1980,1977,1972,1965,1956,1951,1946,1943,1940,1942,1946,1946,1945,1939,1932,1922,1911,1900,1890,1882,1875,1871,1869,1869,1869,1871,1872,1873,1874,1875,1875,1877,1879,1882,1885,1890,1895,1901,1907,1914,1921,1927,1933,1937,1938,1940,1942,1943,1944,1944,1944,1944,1944,1944,1943,1942,1941,1940,1939,1940,1941,1943,1947,1953,1960,1967,1977,1986,1995,2005,2011,2014,2016,2016,1995,1980,1964,1954,1948,1947,1949,1964,1965,1968,1972,1977,1993,1993,2000,2011,2018,2025,2031,2045,2076,2124,2160,2215,2244,2270,2289,2300,2315,2329,2329,2324,2314,2303,2290,2274,2267,1985,2003,2012,2027,2068,2084,2110,2130,2149,2071,1974,0,0,0,0,2434,2420,2426,2409,2402,2382,2341,2332,2331,2329,2338,2333,2333,2348,0,0,0,0,2407,2410,2419,2425,2443,2455,2471,2490,2493,2520,2547,2580,2585,2580,2568,2633,2616,0,0,0,0,0,0,0,0,0,0,0,0,0,0,0,0,0,0,0,0,567,569,569,571,0,0,0,0,0,0,0,0,0,0,0,0,0,0,645,645,645,645,644,644,644,643,643,643,643,643,643,642,642,642,642,642,642,642,642,642,642,642,642,642,642,642,642,642,642,642,642,642,642,642,642,642,642,642,642,642,642,642,642,642,642,642,642,642,642,642,643,643,643,643,643,643,643,643,643,642,642,642,642,642,642,642,643,643,643,643,644,644,644,645,0,0,0,0,0,0,2089,2099,2102,2105,2104,2102,2099,2097,2094,2090,2085,2080,2075,2069,2063,2058,2054,2051,2056,0,2629,2622,2611,2602,2594,2573,0,0,0,0,0,0,2304,0,0,0,2163,2155,2145,2131,2124,2114,2103,2089,2077,2063,2049,2035,2021,2008,1996,1984,1972,1960,1948,1934,1919,1903,1886,1869,1852,1832,1818,1804,1790,1777,1762,1747,1731,1715,1699,1684,1671,1656,1642,1620,1607,1564,1539,1524,1515,1509,1504,1500,1498,1497,7068,7256,7134,7201,7185,7188,7185,7172,7148,7114,7072,7024,6971,6918,6864,6810,6754,6697,6638,6580,6524,6477,6438,6407,6376,6364,6252,6242,6236,6236,6239,6246,6358,6363,6368,6373,6377,6353,6353,6351,6349,6348,6350,6354,6360,6366,6367,6362,6349,6329,6305,6280,6254,6229,6203,6174,6142,6104,6056,5999,5928,5850,5764,5674,5585,5501,5424,5355,5292,5232,5174,5115,5055,4995,4935,4876,4817,4757,4692,4619,4542,4464,4392,4327,4274,4230,4194,4161,4131,4101,4069,4037,4003,3970,3939,3909,3880,3852,3809,3789,3766,3745,3725,3707,3688,3668,3648,3627,3606,3583,3560,3538,3517,3497,3479,3463,3448,3433,3419,3406,3392,3379,3366,3352,3337,3321,3304,3285,3266,3246,3226,3206,3187,3168,3149,3132,3115,3100,3086,3074,3064,3056,3049,3044,3039,3036,3033,3032
0,0,0,0,19781,18767,18396,18087,17792,17581,17573,17099,0,0,0,0,0,0,0,0,0,0,0,0,0,0,0,0,1667,1651,1644,1619,1617,1614,1611,1609,1608,1607,1606,1605,1605,1605,1605,1604,1604,1604,1604,1605,1606,1607,1609,1612,1614,1617,1619,1621,1623,1624,1625,1626,1627,1628,1628,1630,1632,1635,1639,1644,1649,1656,1665,1674,1685,1696,1707,1717,1725,1731,1737,1741,1747,1752,1756,1760,0,0,0,0,1789,1790,1791,1791,1791,1791,1795,2267,2296,2251,0,0,0,1967,1954,1954,1954,1952,1949,1947,1945,1944,1944,1945,1948,1951,1954,1957,1959,1960,1961,1961,1964,1967,1967,1969,1965,1966,1962,1955,1945,1933,1926,1918,1912,1906,1909,1914,1915,1914,1907,1900,1892,1883,1874,1866,1859,1854,1850,1848,1847,1847,1848,1849,1850,1851,1852,1854,1856,1859,1863,1868,1873,1879,1885,1892,1898,1905,1911,1916,1919,1917,1918,1919,1919,1919,1918,1918,1917,1916,1915,1914,1913,1912,1912,1912,1912,1914,1918,1922,1928,1937,1945,1957,1966,1976,1987,1993,1993,1994,1990,1973,1956,1936,1925,1920,1918,1920,1929,1932,1936,1942,1949,1974,1969,1976,1988,1993,1996,1996,2009,2048,2101,2025,2047,2235,2258,2293,2289,2315,2322,2307,2294,2281,2308,1890,1901,1951,1966,1976,1986,1998,2023,2023,2051,2012,2071,2044,1998,0,0,0,0,0,0,2422,2410,2412,2395,2364,2342,0,0,0,0,0,0,0,0,0,0,0,0,2437,2440,2456,2471,2486,2508,2548,2595,2625,2666,2671,2673,2591,2634,2617,0,0,0,0,0,0,0,0,0,0,0,0,0,0,0,0,565,564,566,567,569,567,568,568,0,0,0,0,0,0,0,0,0,0,0,0,0,0,645,645,645,645,644,644,644,643,643,643,643,643,642,642,642,642,642,642,642,642,642,642,642,642,642,642,642,642,642,642,642,642,642,642,642,642,642,642,642,642,642,642,642,642,642,642,642,642,642,642,642,642,643,643,643,643,643,643,643,643,643,643,643,642,642,642,642,642,643,643,643,643,644,644,644,645,0,0,0,0,0,0,2078,2105,2102,2106,2106,2105,2099,2096,2090,2086,2083,2078,2072,2067,2060,2054,2050,2046,0,0,0,2626,2616,2608,2602,0,0,0,0,0,0,0,2269,2251,2148,2152,2160,2147,2135,2121,2110,2099,2087,2075,2062,2049,2037,2024,2011,1999,1987,1976,1965,1953,1941,1928,1913,1898,1881,1864,1846,1829,1814,1800,1787,1773,1759,1744,1728,1711,1695,1680,1667,1653,1638,1598,1580,1555,1533,1518,1508,1501,1496,1493,1491,1490,0,7233,7184,7215,7213,7220,7220,7210,7190,7158,7117,7067,7010,6951,6890,6828,6768,6710,6653,6599,6548,6504,6466,6438,6407,6394,6280,6272,6270,6274,6282,6394,6399,6405,6410,6414,6416,6387,6384,6379,6373,6369,6367,6369,6374,6380,6382,6378,6367,6350,6328,6304,6278,6252,6224,6194,6159,6117,6065,6004,5928,5851,5765,5676,5587,5503,5427,5358,5296,5238,5182,5124,5065,5004,4942,4881,4820,4758,4692,4620,4542,4465,4392,4328,4274,4230,4193,4160,4129,4099,4068,4037,4006,3975,3946,3918,3891,3864,3809,3791,3766,3743,3722,3701,3681,3661,3641,3620,3598,3575,3552,3529,3508,3488,3471,3455,3441,3428,3415,3402,3389,3376,3362,3348,3333,3317,3299,3280,3261,3241,3222,3203,3184,3165,3147,3131,3115,3101,3089,3078,3069,3062,3056,3052,3049,3046,3045,3043
0,0,0,0,19870,18949,18219,17912,17624,17461,17235,0,0,0,0,0,0,0,0,0,0,0,0,0,0,0,0,1664,1649,1622,1622,1618,1615,1612,1609,1607,1606,1605,1604,1604,1604,1604,1604,1603,1603,1603,1603,1604,1605,1607,1609,1611,1614,1616,1618,1621,1622,1624,1625,1626,1626,1627,1628,1630,1632,1635,1639,1644,1649,1656,1665,1674,1684,1695,1706,1716,1724,1731,1736,1741,1747,1752,1758,1763,1767,0,0,0,1788,1790,1788,1791,1788,1789,1789,1792,1796,0,0,1925,1955,1961,1948,1949,1950,1948,1946,1944,1942,1941,1941,1942,1943,1945,1948,1949,1949,1949,1948,1946,1949,1954,1953,1952,1977,1953,1948,1939,1928,1909,1902,1890,1884,1871,1872,1873,1875,1876,1877,1872,1866,1859,1852,1846,1840,1836,1832,1830,1828,1827,1827,1827,1828,1829,1831,1833,1836,1840,1845,1851,1857,1864,1870,1877,1884,1889,1896,1900,1902,1895,1895,1893,1892,1891,1889,1888,1887,1886,1885,1884,1884,1884,1884,1885,1886,1889,1892,1897,1903,1913,1922,1937,1946,1957,1971,1976,1974,1973,1968,1952,1933,1906,1894,1890,1890,1891,1897,1901,1906,1912,1919,1937,1940,1946,1964,1966,1966,1960,1937,1911,1893,1876,1865,1857,1851,1847,1844,1841,1841,1841,1850,1854,1859,1875,1887,1908,1928,1947,1958,1970,1986,1990,1976,1991,2051,1994,0,0,0,0,0,0,2394,2445,2417,2413,2371,2402,2389,2412,0,0,0,0,0,0,0,0,0,0,0,2447,2465,2467,2484,2503,2523,2547,2583,2605,2600,2674,2667,2598,2644,2621,0,0,0,0,0,0,0,0,0,0,0,0,0,0,0,0,565,565,566,566,567,568,568,568,565,565,0,0,0,0,0,0,0,0,0,0,0,0,645,645,645,644,644,644,644,643,643,643,643,643,642,642,642,642,642,642,642,642,642,642,642,642,642,642,642,642,642,642,642,642,642,642,642,642,642,642,642,642,642,642,643,643,642,642,642,642,642,642,642,642,643,643,643,643,643,643,643,643,643,643,643,643,643,642,642,643,643,643,643,643,643,644,644,644,0,0,0,0,0,0,0,2094,2102,2113,2113,2111,2107,2093,2089,2085,2079,2076,2071,2066,2058,2052,2048,0,0,0,0,0,0,0,0,0,0,0,0,0,0,0,2265,2235,2227,2149,2155,2139,2123,2108,2096,2083,2071,2059,2047,2035,2024,2013,2001,1990,1979,1968,1957,1946,1934,1921,1908,1892,1876,1859,1842,1825,1811,1797,1784,1770,1756,1740,1724,1707,1690,1675,1663,1649,1635,1589,1571,1558,1525,1510,1501,1493,1488,1485,1483,1482,1472,7214,7247,7226,7232,7242,7246,7241,7226,7201,7163,7115,7057,6993,6925,6856,6790,6728,6671,6619,6571,6529,6492,6463,6437,6423,6309,6408,6307,6419,6428,6436,6444,6452,6458,6461,6461,6458,6424,6415,6405,6395,6389,6387,6390,6395,6397,6394,6384,6368,6347,6324,6298,6271,6241,6207,6169,6124,6065,6000,5916,5840,5757,5670,5584,5502,5428,5362,5303,5248,5194,5138,5079,5017,4954,4888,4824,4759,4692,4618,4540,4463,4390,4326,4272,4228,4191,4158,4128,4098,4068,4038,4008,3979,3951,3923,3895,3866,3840,3796,3768,3742,3718,3696,3674,3653,3632,3611,3590,3567,3543,3520,3499,3479,3463,3448,3436,3424,3412,3399,3387,3374,3360,3346,3330,3313,3295,3276,3257,3237,3218,3199,3180,3162,3145,3129,3114,3101,3090,3080,3072,3066,3062,3058,3056,3055,3052,3053
0,0,0,0,0,19353,18436,18048,17669,0,0,0,0,0,0,0,0,0,0,0,0,0,0,0,0,0,1662,1633,1629,1625,1622,1618,1615,1612,1609,1607,1605,1604,1604,1604,1604,1604,1603,1603,1603,1602,1603,1603,1604,1606,1608,1610,1613,1615,1618,1620,1622,1623,1624,1625,1626,1626,1627,1629,1631,1634,1638,1643,1649,1656,1664,1673,1683,1694,1704,1714,1722,1729,1735,1740,1746,1752,1759,1765,1768,1774,0,1781,1788,1789,1785,1785,1788,1785,1786,1789,1793,1812,0,0,1953,1941,1940,1942,1944,1943,1942,1940,1938,1937,1937,1938,1939,1940,1942,1942,1940,1938,1935,1930,1935,1943,1943,1970,1970,1808,1783,1805,1806,1812,1811,1818,1825,1838,1842,1846,1849,1851,1853,1850,1846,1841,1836,1830,1825,1821,1817,1814,1811,1809,1808,1808,1808,1809,1811,1815,1819,1824,1830,1837,1845,1852,1858,1865,1871,1875,1879,1886,1885,1871,1869,1866,1863,1860,1858,1856,1855,1855,1855,1855,1856,1857,1858,1860,1861,1863,1866,1870,1876,1889,1897,1918,1927,1939,1960,1963,1985,1948,1857,1842,1852,1861,1863,1861,1862,1864,1869,1873,1877,1883,1889,1889,1908,1913,1940,1940,1940,1929,1899,1881,1868,1856,1847,1841,1836,1832,1829,1827,1826,1828,1830,1839,1848,1860,1872,1889,1907,1923,1933,1944,1957,1960,1974,1973,1949,0,0,0,0,0,0,0,2455,2444,2453,2447,2427,2396,2367,0,0,0,0,0,0,0,0,0,0,0,0,0,2450,2468,2493,2502,2455,2537,2479,2484,2445,2448,2445,0,0,0,0,0,0,0,0,0,0,0,0,0,0,0,0,0,0,0,565,565,566,563,566,564,566,567,564,564,0,0,0,0,0,0,0,0,0,0,0,0,645,645,645,644,644,644,643,643,643,643,643,643,642,642,642,642,642,642,642,642,642,642,642,642,642,642,642,642,642,642,642,642,642,642,642,642,642,642,642,642,642,643,643,643,643,642,642,642,642,642,642,642,643,643,643,643,643,643,643,643,643,643,643,643,643,643,643,643,643,643,643,643,643,643,644,0,0,0,0,0,0,0,0,0,2106,2121,2122,0,2112,2103,2090,2085,2080,2076,2073,2067,2070,0,0,0,0,0,0,1642,1647,0,0,0,0,0,0,0,0,0,0,2234,2221,2127,2149,2130,2111,2095,2081,2068,2056,2045,2032,2022,2011,2001,1991,1981,1971,1961,1950,1939,1928,1916,1902,1887,1871,1854,1837,1821,1806,1793,1780,1766,1752,1737,1720,1703,1685,1670,1660,1647,1634,1579,1562,1542,1524,1502,1493,1485,1480,1477,1474,1474,1468,7216,7229,7231,7242,7255,7263,7264,7256,7237,7206,7162,7106,7040,6966,6892,6820,6755,6696,6644,6597,6557,6520,6491,6465,6454,6341,6435,6442,6453,6466,6479,6491,6502,6508,6511,6509,6438,6467,6452,6435,6418,6406,6400,6400,6403,6404,6401,6392,6377,6359,6337,6310,6283,6252,6216,6176,6127,6059,5989,5893,5819,5740,5658,5577,5499,5430,5369,5314,5263,5212,5158,5100,5037,4971,4900,4831,4761,4690,4614,4535,4457,4385,4321,4268,4225,4188,4155,4125,4096,4067,4038,4010,3982,3954,3925,3896,3866,3836,3796,3766,3738,3712,3688,3666,3644,3622,3601,3580,3557,3534,3511,3490,3471,3456,3443,3432,3422,3411,3399,3386,3373,3359,3345,3329,3312,3294,3274,3255,3235,3216,3197,3178,3160,3143,3127,3112,3100,3089,3080,3073,3068,3064,3062,3061,3059,3059,3060
0,0,0,0,0,0,0,0,0,0,0,0,0,0,0,0,0,0,0,0,0,0,0,0,0,0,1658,1632,1629,1625,1622,1619,1615,1613,1610,1608,1606,1605,1605,1604,1604,1604,1603,1603,1602,1602,1602,1602,1604,1605,1607,1610,1612,1615,1617,1619,1621,1622,1623,1624,1625,1626,1627,1628,1631,1634,1638,1643,1648,1655,1663,1672,1682,1692,1702,1711,1719,1726,1732,1738,1744,1751,1758,1765,1769,1775,1779,1780,1779,1779,1781,1781,1780,1780,1788,1785,1789,1793,1799,0,1877,1940,1903,1933,1938,1938,1938,1936,1935,1934,1934,1934,1935,1936,1936,1935,1932,1929,1923,1915,1916,1850,1775,1766,1761,1764,1788,1788,1789,1793,1794,1799,1805,1814,1820,1825,1830,1833,1835,1834,1832,1828,1823,1818,1813,1808,1804,1800,1796,1794,1792,1791,1791,1792,1795,1799,1805,1812,1819,1827,1835,1843,1849,1855,1860,1863,1863,1856,1852,1846,1842,1837,1832,1829,1827,1826,1825,1825,1826,1828,1830,1832,1834,1836,1836,1837,1839,1842,1846,1863,1870,1902,1910,1912,1807,1806,1825,1821,1825,1825,1829,1834,1835,1835,1837,1839,1843,1846,1850,1855,1860,1864,1875,1878,1855,1850,1816,1848,1859,1850,1840,1831,1825,1820,1816,1813,1809,1807,1807,1808,1812,1820,1830,1842,1854,1871,1888,1903,1912,1922,1935,1939,1935,1924,0,0,0,0,2594,2594,2519,2507,2493,2407,2389,2432,2428,2379,2368,0,0,0,0,0,0,0,0,0,0,0,0,2509,2473,2487,2500,2506,2516,2529,2461,2455,2472,2501,2432,0,2348,2323,0,0,0,0,0,0,0,0,0,0,0,0,0,0,0,0,0,565,565,564,564,564,564,565,0,0,0,0,0,0,0,0,0,0,0,0,0,0,645,645,644,644,644,644,643,643,643,643,643,642,642,642,642,642,642,642,642,642,642,642,642,642,642,642,642,642,642,642,642,642,642,642,642,642,642,642,642,642,643,643,643,643,643,643,642,642,642,642,642,642,643,643,643,643,643,643,643,643,643,643,643,643,643,643,643,643,643,643,643,643,643,643,643,0,0,0,0,0,0,0,0,0,0,0,0,0,0,0,0,0,0,0,0,0,0,0,0,0,0,0,0,1656,1653,1658,0,0,0,0,0,0,0,0,0,0,0,0,0,2121,2100,2082,2067,2054,2042,2032,2019,2009,2000,1991,1982,1972,1963,1953,1943,1933,1922,1910,1897,1882,1865,1848,1832,1816,1802,1788,1775,1762,1748,1732,1715,1697,1679,1663,1657,1635,1565,1573,1556,1538,1518,1495,1485,1478,1472,1469,1466,1464,1457,7212,7214,7235,7250,7265,7276,7281,7279,7266,7242,7204,7152,7087,7012,6935,6859,6791,6730,6677,6630,6589,6553,6522,6496,6474,6462,6398,6471,6486,6503,6521,6537,6549,6557,6558,6554,6484,6505,6481,6455,6429,6410,6398,6394,6396,6396,6394,6387,6375,6360,6342,6316,6290,6259,6223,6183,6134,6055,5981,5865,5799,5725,5648,5572,5499,5436,5379,5329,5283,5236,5184,5126,5062,4992,4914,4839,4764,4689,4609,4528,4449,4377,4313,4262,4219,4183,4151,4121,4093,4065,4038,4010,3982,3954,3924,3894,3862,3828,3791,3759,3730,3703,3678,3654,3632,3610,3589,3568,3546,3524,3502,3482,3465,3451,3440,3431,3422,3412,3400,3388,3374,3361,3346,3331,3313,3295,3275,3254,3234,3215,3195,3176,3158,3141,3125,3110,3097,3086,3078,3071,3066,3063,3062,3062,3061,3062,3063
0,0,0,0,0,0,0,0,0,0,0,0,0,0,0,0,0,0,0,0,0,0,0,0,0,0,1648,1631,1628,1625,1622,1619,1617,1614,1612,1610,1608,1607,1606,1605,1605,1604,1603,1602,1602,1601,1601,1602,1603,1605,1607,1609,1612,1614,1616,1618,1620,1621,1622,1623,1624,1625,1626,1628,1630,1633,1637,1642,1648,1654,1662,1670,1680,1690,1699,1708,1716,1723,1729,1735,1742,1749,1756,1763,1780,1769,1778,1813,1778,1773,1776,1777,1776,1776,1788,1780,1784,1789,1804,1818,1866,1891,1884,1895,1930,1933,1933,1933,1931,1931,1931,1931,1932,1932,1933,1932,1929,1927,1918,1909,1758,1749,1757,1759,1765,1768,1771,1772,1774,1777,1779,1784,1789,1797,1804,1811,1817,1821,1824,1823,1821,1818,1813,1807,1802,1797,1792,1787,1783,1780,1777,1776,1777,1778,1782,1788,1795,1803,1812,1821,1829,1837,1843,1849,1852,1854,1852,1839,1816,1822,1816,1810,1804,1801,1799,1798,1798,1799,1801,1804,1807,1809,1810,1813,1812,1811,1811,1812,1811,1804,1806,0,1771,1773,1791,1794,1804,1803,1805,1806,1808,1811,1812,1812,1813,1815,1819,1820,1823,1827,1829,1835,1841,1841,1840,1832,1832,1821,1826,1820,1813,1807,1802,1798,1794,1791,1786,1784,1783,1785,1789,1798,1809,1821,1836,1853,1872,1888,1897,1906,1923,1927,1913,0,0,0,2587,2593,2582,2581,2561,2537,2500,2486,2394,2385,2430,0,0,0,0,0,0,0,0,0,0,0,0,0,0,0,2484,2503,2512,2514,2519,2525,2532,2441,2480,2467,2426,2383,2379,2339,0,0,0,0,0,0,0,0,0,0,0,0,0,0,0,0,0,562,565,567,565,565,564,566,0,0,0,0,0,0,0,0,0,0,0,0,0,0,645,645,644,644,644,644,643,643,643,643,643,642,642,642,642,642,642,642,642,642,642,642,642,642,642,642,642,642,642,642,642,642,642,642,642,642,642,642,642,643,643,643,643,643,643,643,643,642,642,642,642,642,642,643,643,643,643,643,643,643,643,643,643,643,643,643,643,643,643,643,643,643,643,643,0,0,0,0,0,0,0,0,0,0,0,0,0,0,0,0,0,0,0,0,0,0,0,0,0,0,0,0,1677,1660,1658,1662,0,0,0,0,0,0,0,0,0,0,0,0,0,2131,2093,2072,2057,2042,2030,2023,2007,1998,1989,1980,1972,1963,1955,1946,1937,1927,1917,1905,1892,1877,1860,1843,1826,1810,1796,1783,1770,1757,1743,1727,1710,1691,1672,1654,1631,1615,1599,1570,1562,1533,1514,1488,1478,1471,1465,1461,1459,1457,1452,7207,7230,7241,7258,7274,7287,7295,7296,7288,7270,7238,7191,7130,7059,6982,6906,6836,6773,6719,6672,6630,6592,6560,6532,6510,6497,6447,6449,6460,6477,6496,6514,6528,6536,6539,6536,6563,6552,6520,6486,6454,6398,6382,6375,6376,6376,6375,6371,6364,6354,6343,6317,6295,6267,6233,6199,6156,6068,6016,5842,5788,5721,5650,5578,5507,5449,5397,5351,5309,5265,5215,5158,5092,5020,4932,4850,4767,4687,4602,4519,4439,4367,4302,4252,4211,4176,4145,4117,4090,4063,4036,4009,3981,3951,3920,3887,3853,3817,3780,3747,3717,3689,3663,3638,3615,3594,3573,3553,3532,3512,3492,3474,3459,3448,3439,3432,3424,3414,3403,3390,3377,3364,3349,3333,3316,3297,3276,3255,3234,3214,3194,3175,3156,3138,3122,3107,3094,3083,3073,3067,3062,3059,3058,3058,3058,3059,3060
0,0,0,0,0,0,0,0,0,0,0,0,0,0,0,0,0,0,0,0,0,0,0,0,0,0,1646,1629,1627,1624,1622,1620,1617,1615,1613,1611,1610,1608,1607,1606,1605,1604,1603,1602,1601,1601,1601,1601,1603,1604,1607,1609,1612,1614,1616,1618,1619,1620,1621,1622,1623,1624,1625,1627,1630,1633,1637,1642,1647,1654,1661,1669,1678,1687,1697,1705,1713,1720,1726,1732,1739,1746,1753,1761,1778,1785,1776,1777,1776,1775,1771,1774,1774,1772,1783,1789,1794,1785,1817,1807,1822,1885,1865,1879,1904,1936,1934,1930,1928,1928,1927,1929,1930,1927,1936,1936,1677,1762,1701,1706,1713,1732,1739,1743,1748,1752,1756,1759,1762,1765,1768,1773,1778,1785,1793,1801,1808,1813,1816,1816,1814,1810,1805,1798,1792,1786,1780,1775,1771,1767,1765,1764,1764,1767,1772,1779,1787,1797,1807,1817,1826,1833,1839,1844,1846,1846,1842,1822,1802,1802,1795,1788,1781,1778,1775,1775,1775,1776,1779,1783,1786,1787,1789,1792,1788,1784,1782,1778,1780,1774,1775,1759,1764,1767,1773,1779,1786,1787,1789,1790,1791,1791,1791,1791,1791,1792,1795,1794,1796,1799,1801,1811,1816,1817,1811,1799,1803,1798,1800,1795,1789,1783,1780,1776,1772,1768,1760,1757,1756,1758,1764,1774,1787,1800,1817,1837,1860,1877,1885,1895,1903,0,0,0,0,2581,2578,2583,2574,2592,2577,2545,2503,2489,0,0,0,23479,24403,24868,25017,0,0,0,0,0,0,0,0,0,0,0,2547,2521,2523,2527,2529,2531,2535,2575,2555,2479,2442,2404,2369,2337,0,0,0,0,0,0,0,0,0,0,0,0,0,0,0,0,0,0,564,563,564,564,563,564,0,0,0,0,0,0,0,0,0,0,0,646,645,645,645,645,644,644,644,643,643,643,643,643,642,642,642,642,642,642,642,642,642,642,642,642,642,642,642,642,642,642,642,642,642,642,642,642,642,642,642,643,643,643,643,643,643,643,643,643,643,642,642,642,642,642,642,643,643,643,643,643,643,643,643,643,643,643,643,643,643,643,643,643,643,643,643,643,0,0,0,0,0,0,0,0,0,0,0,0,0,0,0,0,0,0,0,0,0,0,0,0,0,0,0,0,1679,1664,1670,1666,0,0,0,0,0,0,0,0,0,0,0,0,0,0,0,2049,2041,2031,2022,2016,1997,1988,1980,1971,1963,1955,1947,1939,1930,1921,1911,1900,1887,1872,1855,1838,1821,1805,1790,1777,1764,1751,1737,1721,1704,1686,1666,1649,1629,1613,1598,1585,1569,1537,1512,1478,1472,1464,1458,1455,1452,1451,1448,7205,7232,7250,7267,7284,7297,7305,7308,7303,7288,7262,7222,7168,7102,7030,6958,6889,6826,6770,6721,6677,6638,6603,6573,6548,6533,6526,6533,6507,6527,6549,6569,6584,6591,6590,6619,6594,6559,6525,6479,6434,6377,6356,6347,6350,6351,6352,6352,6350,6347,6344,6377,6351,6316,6273,6219,6144,6095,6125,5847,5808,5744,5675,5604,5530,5475,5425,5382,5342,5301,5252,5195,5126,5052,4951,4861,4771,4686,4595,4509,4427,4355,4288,4240,4201,4167,4139,4112,4086,4060,4033,4006,3977,3945,3912,3877,3840,3801,3763,3729,3698,3669,3643,3618,3595,3574,3554,3535,3517,3499,3482,3466,3454,3446,3439,3434,3427,3418,3407,3394,3381,3367,3352,3336,3318,3299,3277,3256,3234,3213,3193,3173,3154,3136,3120,3104,3090,3078,3068,3061,3055,3052,3050,3049,3050,3050,3051
0,0,0,0,0,0,0,0,0,0,0,0,0,0,0,0,0,0,0,0,0,0,0,0,0,0,1648,1634,1625,1622,1620,1619,1617,1616,1614,1612,1611,1609,1608,1606,1605,1604,1602,1601,1601,1600,1600,1601,1602,1604,1607,1609,1611,1614,1615,1617,1618,1619,1620,1621,1622,1623,1625,1626,1629,1632,1636,1641,1647,1653,1660,1668,1676,1685,1694,1703,1710,1717,1724,1729,1736,1742,1750,1757,1776,1783,1774,1812,1775,1774,1799,1777,1771,1772,1774,1775,1775,1778,1783,1796,1782,0,0,0,0,0,0,0,1629,1642,1633,1635,1637,0,1658,1665,1673,1681,1693,1699,1706,1718,1725,1730,1736,1740,1745,1748,1752,1756,1760,1764,1770,1777,1785,1795,1802,1808,1811,1811,1808,1804,1798,1789,1783,1776,1769,1764,1759,1756,1753,1753,1754,1758,1763,1773,1783,1793,1804,1815,1824,1831,1837,1842,1842,1839,1834,1813,1792,1789,1779,1772,1762,1759,1758,1757,1757,1758,1760,1764,1767,1767,1768,1773,1767,1762,1758,1754,1753,1752,1753,1747,1751,1755,1761,1767,1773,1775,1778,1778,1777,1776,1774,1771,1770,1768,1768,1768,1769,1771,1773,1766,1743,1741,1778,1776,1784,1776,1778,1774,1767,1761,1759,1755,1750,1745,1733,1729,1727,1730,1738,1749,1765,1779,1798,1823,1842,1849,1861,1878,1875,0,0,0,2527,2518,2542,2603,2587,2588,2578,2541,2510,0,0,0,0,24045,26360,26725,26762,0,0,0,0,0,0,0,0,0,0,0,2552,2541,2545,2545,2544,2544,2545,2549,2536,2508,2463,2437,2403,2348,0,0,0,0,0,0,0,0,0,0,0,0,0,0,0,0,0,0,0,565,566,566,566,0,0,0,0,0,0,0,0,0,0,0,646,645,645,645,645,645,645,644,644,643,643,643,643,642,642,642,642,642,642,642,642,642,642,642,642,642,642,642,642,642,642,642,642,642,642,642,642,642,642,642,643,643,643,643,643,643,643,643,643,643,643,642,642,642,642,642,642,642,643,643,643,643,643,643,643,643,643,643,643,643,643,643,643,643,643,643,643,643,0,0,0,0,0,0,0,0,0,0,0,0,0,0,0,0,0,0,0,0,0,0,0,0,0,0,0,1666,1682,1682,1679,0,0,0,0,0,0,0,0,0,0,0,0,0,0,0,0,0,2026,2026,2013,1999,1992,1982,1973,1964,1955,1946,1939,1931,1922,1914,1904,1894,1881,1866,1850,1832,1815,1799,1785,1771,1759,1745,1731,1716,1699,1681,1663,1645,1627,1612,1598,1585,1569,1545,1511,1472,1465,1457,1452,1448,1446,1445,1444,7121,7239,7258,7274,7289,7301,7308,7310,7306,7295,7274,7242,7197,7141,7077,7010,6944,6883,6827,6776,6729,6686,6648,6615,6587,6570,6562,6569,6587,6612,6638,6661,6676,6681,6674,6653,6619,6573,6515,6457,6398,6356,6333,6324,6332,6336,6340,6343,6345,6346,6354,6349,6336,6313,6281,6238,6179,6131,6089,6037,5864,5801,5729,5653,5568,5514,5462,5420,5381,5342,5293,5235,5166,5093,4971,4873,4774,4686,4588,4499,4415,4343,4271,4225,4189,4158,4132,4107,4083,4058,4031,4003,3972,3938,3901,3863,3823,3779,3740,3705,3673,3644,3618,3594,3571,3551,3533,3516,3500,3486,3472,3460,3451,3445,3441,3437,3431,3422,3411,3398,3385,3370,3355,3339,3320,3300,3278,3255,3233,3212,3191,3171,3153,3135,3117,3101,3086,3073,3062,3054,3048,3043,3040,3038,3038,3038,3038
0,0,0,0,0,0,0,0,0,0,0,0,0,0,0,0,0,0,0,0,0,0,0,0,0,0,1635,1637,1620,1618,1617,1617,1616,1615,1614,1612,1611,1609,1607,1606,1604,1603,1602,1601,1600,1599,1600,1601,1602,1604,1607,1609,1611,1613,1615,1616,1617,1618,1619,1620,1621,1622,1623,1625,1628,1631,1636,1641,1646,1652,1659,1666,1674,1683,1692,1700,1708,1715,1722,1727,1733,1739,1745,1752,1759,1803,1808,1812,1715,1805,0,1788,1784,1780,0,0,0,1583,1575,1575,1573,1575,1575,1580,1588,1592,1595,1600,1605,1609,1614,1619,1626,1633,1644,1659,1668,1677,1687,1694,1701,1709,1716,1721,1726,1732,1737,1741,1745,1748,1753,1758,1763,1770,1779,1791,1799,1805,1809,1808,1804,1799,1792,1782,1773,1765,1758,1753,1749,1745,1744,1744,1746,1750,1757,1768,1778,1789,1803,1816,1825,1832,1837,1843,1842,1839,1827,1799,1786,1774,1763,1759,1749,1746,1744,1743,1743,1743,1745,1749,1751,1749,1750,1750,1750,1743,1739,1736,1735,1738,1739,1738,1741,1746,1753,1759,1765,1768,1771,1770,1768,1764,1760,1754,1750,1743,1740,1741,1742,1744,1755,1729,1726,1726,1721,1754,1760,1756,1761,1757,1749,1741,1740,1736,1731,1724,1705,1701,1697,1701,1713,1725,1746,1760,1783,1810,1819,1829,1855,0,0,0,0,0,2522,2524,2532,2559,2576,2583,2577,2541,2511,0,0,0,0,24266,27037,27183,27136,0,0,0,0,0,0,0,0,0,0,0,0,2571,2565,2564,2562,2561,2560,2559,2549,2528,2507,2469,2417,0,0,0,0,0,0,0,0,0,0,0,0,0,0,0,0,0,0,0,0,566,566,566,0,0,0,0,0,0,0,0,0,0,0,0,647,646,646,646,645,645,645,644,644,643,643,643,642,642,642,642,642,642,642,642,642,642,642,642,642,642,642,642,642,642,642,642,642,642,642,642,642,642,642,643,643,643,643,643,643,643,643,643,643,643,643,642,642,642,642,642,642,642,643,643,643,643,643,643,643,643,643,643,643,643,643,643,643,643,643,643,644,644,0,0,0,0,0,0,0,0,0,0,0,0,0,0,0,0,0,0,0,0,0,0,0,0,0,0,0,0,0,0,0,0,0,0,0,0,0,0,0,0,0,0,0,0,0,0,0,0,2037,2015,2008,1996,1988,1977,1968,1958,1948,1938,1930,1921,1912,1904,1895,1885,1873,1859,1843,1826,1809,1793,1779,1766,1753,1740,1727,1712,1695,1678,1660,1644,1627,1613,1599,1586,1572,1547,1511,1466,1458,1450,1445,1442,1440,1440,1440,0,7241,7254,7269,7282,7292,7297,7298,7295,7288,7273,7250,7215,7170,7116,7058,6998,6940,6883,6831,6781,6735,6693,6655,6624,6604,6595,6602,6621,6648,6676,6700,6716,6719,6708,6681,6639,6584,6514,6450,6382,6341,6320,6315,6335,6341,6348,6353,6358,6356,6359,6358,6347,6328,6301,6266,6219,6175,6112,6050,5958,5891,5811,5724,5616,5563,5507,5461,5423,5384,5334,5277,5207,5143,4990,4885,4778,4699,4590,4488,4405,4332,4251,4210,4178,4150,4127,4105,4082,4058,4030,4000,3966,3929,3888,3846,3803,3753,3712,3676,3643,3615,3590,3566,3545,3526,3510,3496,3484,3473,3463,3455,3449,3446,3444,3441,3436,3427,3416,3403,3389,3374,3358,3341,3321,3300,3277,3254,3231,3210,3189,3170,3151,3133,3116,3099,3083,3069,3057,3048,3040,3035,3030,3027,3025,3024,3024
0,0,0,0,0,0,0,0,0,0,0,0,0,0,0,0,0,0,0,0,0,0,0,0,0,1622,1596,1612,1616,1613,1613,1613,1613,1612,1612,1610,1609,1608,1606,1605,1603,1602,1600,1600,1599,1599,1599,1600,1602,1604,1606,1609,1611,1613,1614,1615,1616,1617,1617,1618,1619,1620,1622,1624,1626,1630,1634,1639,1645,1651,1658,1665,1673,1681,1690,1699,1707,1713,1721,1726,1730,1736,1741,1748,1757,1801,1806,0,0,1418,1423,1424,1426,1429,0,0,1505,1552,1562,1560,1563,1567,1573,1577,1583,1586,1591,1596,1601,1605,1610,1615,1622,1630,1641,1655,1665,1675,1685,1691,1697,1704,1709,1715,1720,1726,1731,1735,1740,1743,1752,1755,1759,1764,1775,0,0,0,1822,1814,1803,1797,1788,1773,1765,1734,1725,1721,1740,1737,1736,1737,1740,1745,1752,1765,1778,1789,1801,1817,1825,1833,1840,1849,1843,1832,0,1774,1774,1761,1755,1751,1740,1738,1736,1734,1733,1732,1733,1737,1739,1692,1690,1698,1700,1731,1727,1724,1724,1731,1734,1735,1737,1742,1749,1754,1766,1764,1769,1766,1762,1755,1749,1738,1730,1718,1713,1719,1716,1720,1733,1710,1708,1710,1708,1746,1732,1739,1741,1730,1732,1723,1724,1721,1716,1708,1678,1672,1666,1673,1689,1704,1732,1746,1778,1803,1813,1820,0,0,0,0,0,0,0,2438,2520,2559,2581,2502,2504,2490,0,0,0,0,0,24456,27335,27513,27391,0,0,0,0,0,0,0,0,0,0,0,2612,2588,2584,2582,2580,2579,2577,2574,2565,2550,2530,2518,2432,0,0,0,0,0,0,0,0,0,0,0,0,0,0,0,0,0,0,0,0,0,0,0,0,0,0,0,0,0,0,0,0,0,0,0,648,646,646,646,646,645,645,644,644,643,643,643,642,642,642,642,642,642,642,642,642,642,642,642,642,642,642,642,642,642,642,642,642,642,642,642,642,642,643,643,643,643,643,643,643,643,643,643,643,643,643,642,642,642,642,642,642,642,643,643,643,643,643,643,643,643,643,643,643,643,643,643,643,643,643,644,644,644,0,0,0,0,0,0,0,0,0,0,0,0,0,0,0,0,0,0,0,0,0,0,0,0,0,0,0,1625,0,0,0,0,0,0,0,0,0,0,0,0,0,0,0,0,0,0,0,0,0,0,2004,1995,1986,1974,1964,1954,1941,1929,1920,1910,1899,1890,1882,1872,1861,1849,1834,1818,1802,1787,1774,1761,1749,1736,1722,1708,1692,1675,1658,1642,1627,1613,1600,1588,1575,1559,1523,1456,1449,1442,1438,1435,1433,1434,1436,7087,7215,7229,7243,7255,7262,7266,7267,7266,7263,7256,7243,7220,7188,7146,7097,7045,6990,6935,6881,6828,6779,6733,6692,6658,6634,6624,6629,6649,6677,6706,6731,6747,6749,6734,6703,6656,6597,6516,6399,6371,6336,6320,6321,6361,6378,6386,6381,6384,6378,6366,6372,6361,6346,6326,6301,6231,6305,6265,6143,6071,6003,5914,5811,5664,5615,5550,5501,5460,5423,5369,5315,5249,5208,5056,4958,4832,4750,4578,4490,4417,4349,4229,4196,4168,4144,4126,4105,4085,4060,4031,3999,3961,3919,3874,3828,3781,3723,3680,3643,3610,3582,3558,3536,3517,3500,3487,3476,3463,3460,3454,3450,3447,3447,3446,3445,3440,3433,3421,3408,3393,3377,3360,3342,3321,3299,3275,3252,3229,3207,3187,3168,3150,3132,3115,3098,3081,3065,3053,3043,3034,3028,3023,3018,3015,3013,3012
0,0,0,0,0,0,0,0,0,0,0,0,0,0,0,0,0,0,0,0,0,0,0,0,0,1618,1604,1606,1605,1608,1609,1609,1609,1609,1609,1608,1607,1605,1604,1603,1601,1600,1599,1599,1598,1598,1599,1600,1602,1604,1606,1608,1610,1612,1613,1614,1615,1615,1616,1616,1617,1618,1619,1622,1625,1628,1633,1638,1643,1649,1656,1663,1671,1680,1690,1699,1707,1716,1721,1725,1729,1733,1737,1744,1734,0,0,1418,1418,1420,1422,1424,1427,1431,1435,1445,1477,1546,1543,1549,1558,1562,1566,1571,1576,1580,1586,1591,1595,1599,1605,1610,1618,1626,1639,1652,1663,1675,1684,1691,1696,1701,1706,1711,1717,1720,1727,1732,1736,1739,1736,1736,1737,1739,0,0,0,0,1804,1820,1814,1797,1790,1766,1735,1725,1715,1711,1710,1710,1731,1732,1737,1742,1758,1783,1789,1784,1804,1811,1830,1836,1850,1852,0,0,0,0,0,0,1751,1748,1735,1733,1731,1728,1725,1724,1723,1730,1730,1666,1665,1681,1685,1715,1714,1712,1711,1711,1717,1724,1717,1740,1745,1745,1755,1758,1776,1771,1761,1750,1746,1722,1708,1694,1694,1687,1692,1698,1690,1691,1691,1695,1713,1727,1724,1725,1719,1717,1714,1707,1691,1684,1640,1652,1614,1624,1637,1646,1669,1687,1714,1736,1783,1798,1809,1816,0,0,0,0,0,0,0,0,0,0,0,0,0,0,0,0,0,0,0,0,0,0,0,0,0,0,0,0,0,0,0,0,0,2602,2608,2597,2599,2598,2597,2595,2593,2590,2583,2570,2552,2538,2442,0,0,0,0,0,0,0,0,0,0,0,0,0,0,0,0,0,0,0,0,0,0,0,0,0,0,0,0,0,0,0,0,0,0,0,648,646,646,646,646,645,645,644,644,643,643,642,642,642,642,642,642,642,642,642,642,642,642,642,642,642,642,642,642,642,642,642,642,642,642,642,642,643,643,643,643,643,643,643,643,643,643,643,643,643,643,642,642,642,642,642,642,642,642,642,642,642,642,642,642,642,642,642,642,643,643,643,643,643,644,644,644,645,646,0,0,0,0,0,0,0,0,0,0,0,0,0,0,0,0,0,0,0,0,0,0,0,0,1629,1633,1630,1633,1620,1620,0,0,0,0,0,0,0,0,0,0,0,0,0,0,0,0,0,0,0,0,0,0,1971,1961,1947,1933,1919,1909,1897,1883,1874,1865,1856,1847,1837,1823,1808,1794,1781,1769,1757,1745,1732,1718,1704,1688,1671,1655,1640,1625,1612,1600,1589,1577,1563,1453,1446,1441,1434,1430,1427,1426,1429,1427,7122,7172,7188,7201,7211,7216,7219,7220,7222,7224,7226,7223,7213,7193,7163,7125,7080,7029,6976,6922,6868,6817,6768,6724,6687,6660,6648,6652,6671,6698,6728,6752,6767,6767,6751,6717,6667,6607,6511,6427,6382,6350,6337,6338,6410,6428,6434,6434,6422,6409,6395,6394,6383,6370,6357,6412,6411,6407,6389,6359,6301,6134,6033,5908,5689,5663,5586,5530,5486,5449,5351,5295,5255,5262,5071,4834,4754,4763,4716,4456,4423,4385,4128,4327,4327,4335,4127,4310,4089,4065,4033,3998,3956,3908,3859,3810,3761,3689,3644,3609,3575,3548,3525,3504,3487,3473,3458,3450,3445,3442,3444,3443,3444,3445,3447,3446,3443,3435,3424,3410,3395,3378,3361,3342,3320,3297,3273,3249,3225,3204,3185,3167,3149,3132,3115,3098,3081,3064,3051,3040,3031,3024,3018,3012,3007,3005,3004
0,0,0,0,0,0,0,0,0,0,0,0,0,0,0,0,0,0,0,0,0,0,0,0,0,0,1598,1598,1602,1604,1604,1605,1605,1606,1605,1605,1604,1603,1602,1600,1599,1599,1598,1597,1597,1598,1599,1600,1601,1603,1605,1607,1609,1611,1612,1613,1613,1613,1614,1614,1614,1615,1617,1619,1622,1626,1630,1636,1641,1647,1654,1661,1670,1679,1690,1700,1707,1718,1722,1725,1728,1731,1729,0,0,0,1416,1416,1416,1418,1420,1423,1427,1432,1437,1447,1467,1562,1523,1539,1546,1552,1557,1563,1568,1573,1581,1585,1590,1594,1599,1604,1613,1621,1636,1651,1665,1679,1687,1694,1698,1697,1697,1702,1702,1714,1721,1719,0,0,0,2281,2280,2276,2272,2271,0,0,0,0,1804,1801,1810,1731,1724,1710,1708,1705,1704,1705,1706,1708,1750,1775,1780,1778,1791,1846,1844,1843,0,0,0,0,0,0,0,0,0,0,0,0,0,0,0,1720,1714,1712,0,0,0,1638,1640,1671,1676,1681,1686,1691,1702,1715,1724,1735,1717,1745,1745,1749,1758,1757,1771,1778,1749,0,0,1695,1709,1659,1665,1663,1672,1679,1671,1674,1674,1679,1677,1639,1621,1599,1611,1595,1580,1559,1553,1545,1551,1561,1590,1598,1610,1622,1630,1645,0,0,0,0,0,0,0,0,0,0,0,0,0,0,0,0,0,0,0,0,0,0,0,0,0,0,0,0,0,0,0,0,0,0,0,0,0,2606,2606,2601,2609,2616,2611,2611,2610,2610,2609,2606,2601,2591,2581,2581,2487,0,0,0,0,0,0,0,0,0,0,0,0,0,0,0,0,0,0,0,0,0,0,0,0,0,0,0,0,0,0,0,0,0,0,0,648,648,647,646,646,645,645,644,644,643,643,642,642,642,642,642,643,643,643,643,642,642,642,642,642,642,642,642,642,642,642,642,642,642,642,642,642,642,643,643,643,643,643,643,643,643,643,643,643,643,642,642,642,642,642,642,642,642,642,642,642,642,642,642,642,642,642,642,642,642,643,643,643,644,644,644,645,645,646,0,0,0,0,0,0,0,0,0,0,0,0,0,0,0,0,0,0,0,0,0,0,0,1650,1641,1636,1633,1618,1618,1615,0,0,0,0,0,0,0,0,0,0,0,0,0,0,0,0,0,0,0,0,0,0,0,1953,1943,1924,1908,1897,1883,1865,1854,1845,1838,1830,1823,1812,1798,1786,1775,1764,1753,1742,1728,1713,1699,1682,1665,1649,1634,1621,1608,1597,1585,1577,0,1453,1439,1434,1426,1422,1419,1418,1425,1422,7098,7131,7146,7156,7162,7165,7166,7166,7170,7178,7188,7195,7196,7187,7168,7140,7102,7057,7006,6954,6900,6848,6797,6751,6712,6684,6669,6671,6688,6713,6741,6764,6777,6776,6759,6727,6682,6631,6614,6558,6527,6513,6515,6528,6490,6497,6497,6490,6476,6448,6432,6428,6416,6405,6472,6487,6505,6522,6529,6520,6483,6394,6129,5979,5876,5712,5613,5546,5495,5455,5423,5395,5355,5294,0,0,0,0,0,0,0,0,0,4335,4311,4360,4354,4339,4311,4272,4035,3999,3952,3898,3845,3795,3709,3652,3602,3576,3540,3513,3491,3470,3455,3442,3431,3425,3423,3428,3429,3432,3435,3439,3441,3442,3440,3433,3423,3409,3394,3377,3359,3340,3318,3294,3269,3245,3222,3201,3183,3165,3149,3132,3116,3099,3083,3064,3051,3040,3031,3024,3017,3009,3004,3001,3000
0,0,0,0,0,0,0,0,0,0,0,0,0,0,0,0,0,0,0,0,0,0,0,0,0,0,1597,1594,1599,1601,1601,1602,1602,1603,1602,1602,1601,1600,1599,1598,1598,1597,1597,1597,1597,1597,1598,1600,1601,1603,1605,1607,1608,1610,1611,1611,1612,1612,1612,1612,1612,1613,1615,1617,1620,1623,1628,1632,1638,1644,1651,1659,1668,1678,1690,1702,1716,1720,1725,1727,1728,1732,1701,0,0,1413,1412,1412,1413,1415,1418,1422,1427,1432,1439,1448,1464,1478,1508,1524,1532,1540,1548,1554,1559,1564,1576,1580,1584,1588,1592,1598,1607,1613,1633,1669,1697,1691,1699,1700,1710,1713,1716,1713,1713,1989,1989,0,0,0,2294,2292,2290,2280,2286,2290,2282,0,0,0,0,0,1757,0,0,1704,1700,0,0,0,0,0,1782,1786,1785,1859,1861,1846,0,0,0,0,0,0,0,0,0,0,0,0,0,0,0,0,0,0,0,0,1600,1624,1616,1622,1629,0,0,0,0,0,1706,1725,1736,1757,1786,1790,1793,1806,1831,1832,1777,1771,1792,1778,0,1662,1642,1643,1649,1645,1646,1654,1659,1663,1658,1668,1670,1628,1610,1580,1568,1585,1570,1531,1528,1529,1538,1547,1568,1577,1590,1607,1612,0,2548,2550,0,0,0,0,0,0,0,0,0,0,0,0,0,0,0,0,0,0,0,0,0,0,0,0,0,0,0,0,0,0,0,0,0,2636,2615,2607,2596,2590,2614,2622,2620,2621,2622,2623,2622,2621,2616,2609,2592,2563,0,0,0,0,0,0,0,0,0,0,0,0,0,0,0,0,0,0,0,0,0,0,0,0,0,0,0,0,0,0,0,0,0,0,0,0,648,648,647,646,646,645,645,644,644,643,643,642,642,642,642,643,643,643,643,643,643,642,642,642,642,642,642,642,642,642,642,642,642,642,642,642,642,642,642,643,643,643,643,643,643,643,643,643,642,642,642,642,642,642,642,642,642,642,642,642,642,642,642,642,642,642,642,642,642,642,643,643,643,644,644,644,645,645,646,0,0,0,0,0,0,0,0,0,0,0,0,0,0,0,0,0,0,0,0,0,0,0,1648,1641,1635,1633,1618,1618,1615,1604,0,0,0,0,0,0,0,0,0,0,0,0,0,0,0,0,0,0,0,0,0,0,0,0,1915,1897,1887,1861,1846,1835,1826,1820,1814,1806,1798,1788,1779,1769,1760,1749,1738,1722,1707,1692,1674,1657,1641,1627,1614,1603,1593,1584,1573,0,0,1434,1429,1418,1414,1411,1410,1407,1406,7074,7100,7114,7121,7123,7121,7118,7117,7122,7133,7148,7162,7172,7172,7162,7141,7110,7070,7024,6975,6923,6872,6822,6776,6736,6706,6689,6688,6701,6724,6748,6768,6778,6776,6761,6732,6695,6654,6649,6585,6557,6547,6646,6640,6574,6573,6567,6553,6532,6494,6477,6477,6464,6456,6543,6573,6609,6646,6677,6690,6671,6563,6255,6042,5907,5740,5618,5541,5485,5442,5408,5379,5342,5307,0,0,0,14440,14251,14055,13879,14065,13565,13367,0,4257,4261,4264,4241,4286,4232,3998,3946,3883,3824,3767,3682,3628,3574,3552,3508,3481,3458,3435,3421,3407,3404,3400,3401,3405,3409,3414,3420,3425,3428,3430,3429,3423,3414,3402,3388,3372,3355,3335,3313,3290,3265,3241,3218,3199,3181,3165,3150,3134,3119,3103,3088,3066,3054,3044,3035,3028,3021,3010,3005,3001,3000
0,0,0,0,0,0,0,0,0,0,0,0,0,0,0,0,0,0,0,0,0,0,0,0,0,0,1593,1595,1598,1599,1600,1601,1601,1601,1601,1600,1599,1598,1597,1597,1596,1596,1596,1596,1597,1597,1598,1599,1601,1603,1604,1606,1607,1609,1610,1610,1610,1610,1610,1610,1610,1611,1612,1614,1617,1620,1624,1629,1634,1640,1647,1655,1665,1677,1691,1706,1718,1724,1727,1728,1733,1698,0,0,0,1405,1405,1407,1409,1412,1416,1420,1425,1431,1438,1448,1460,1473,1495,1507,1517,1527,1536,1545,1551,1554,1567,1571,1577,1580,1577,1582,1596,1599,0,0,0,1886,1888,1892,1899,1709,1985,1987,1988,1988,1987,1986,0,2300,2288,2286,2285,2284,2283,2283,2282,0,0,0,0,0,0,0,0,0,0,0,0,0,0,0,0,1787,1850,1856,1850,1854,1859,0,0,0,0,0,0,0,0,0,0,0,0,0,0,0,0,0,0,0,0,0,1584,1604,1604,1575,0,0,0,0,0,1733,1746,1813,1798,1800,1801,1813,1835,1837,1793,1747,0,0,1610,1634,1589,1635,1635,1616,1645,1571,0,1658,1658,1649,1641,1620,1574,1550,1524,1513,1510,1512,1513,1516,1523,1533,1551,1560,1576,1585,1592,2627,2559,2578,2574,2567,0,0,0,0,0,0,0,0,0,0,0,0,0,0,0,0,0,0,0,0,0,0,0,0,0,0,0,0,0,0,0,2627,2653,2649,2616,2587,2587,2628,2626,2628,2631,2632,2632,2631,2628,2623,0,0,0,0,0,0,0,0,0,0,0,0,0,0,0,0,0,0,0,0,0,0,0,0,0,0,0,0,0,0,0,0,0,0,0,0,0,0,649,649,647,647,646,645,645,644,643,643,643,643,642,643,643,643,643,643,643,643,643,643,643,643,642,642,642,642,642,642,642,642,642,642,642,642,642,642,642,642,642,642,642,643,643,643,642,642,642,642,642,642,642,642,642,642,642,642,642,642,642,642,642,642,642,642,642,642,642,642,642,643,643,643,644,644,644,645,645,0,0,0,0,0,0,0,0,0,0,0,0,0,0,0,0,0,0,0,0,0,0,0,1649,1640,1633,1610,1615,1615,1615,1612,0,0,0,0,0,0,0,0,0,0,0,0,0,0,0,0,0,0,0,0,0,0,0,0,0,1888,1863,1839,1826,1818,1810,1805,1801,1792,1786,1781,1773,1765,1756,1746,1734,1716,1698,1683,1664,1646,1631,1618,1606,1596,1587,1579,1571,1529,0,1426,1419,1410,1407,1404,1402,1395,1394,7061,7085,7100,7102,7098,7091,7083,7078,7081,7093,7110,7129,7144,7150,7146,7131,7105,7071,7030,6985,6937,6889,6841,6796,6756,6725,6706,6703,6712,6730,6751,6767,6775,6772,6758,6734,6704,6674,6669,6669,6669,6674,6678,6678,6644,6641,6633,6617,6591,6541,6527,6541,6529,6522,6626,6668,6719,6576,6611,6636,6644,6795,6720,6114,5925,5744,5598,5518,5459,5415,5379,5348,5326,5313,0,0,14770,14647,14539,13949,13762,13543,13377,13108,12918,0,0,0,0,0,4164,4118,4017,3872,3743,3687,3609,3618,3565,3539,3482,3452,3427,3401,3392,3371,3371,3368,3371,3377,3384,3391,3398,3404,3408,3411,3410,3406,3399,3388,3376,3362,3345,3327,3306,3283,3260,3237,3215,3197,3181,3166,3151,3137,3123,3109,3096,3090,3060,3050,3042,3036,3032,3064,3064,3060,3067
0,0,0,0,0,0,0,0,0,0,0,0,0,0,0,0,0,0,0,0,0,0,0,0,0,0,0,1595,1600,1601,1601,1601,1601,1600,1600,1599,1598,1597,1596,1596,1596,1596,1596,1596,1597,1598,1599,1600,1601,1602,1604,1605,1607,1608,1609,1609,1609,1609,1609,1609,1609,1609,1610,1612,1614,1617,1620,1625,1630,1635,1643,1651,1662,1675,1696,1710,1721,1726,1729,1733,0,0,0,1383,1392,1398,1397,1400,1403,1407,1412,1418,1424,1430,1437,1446,1456,1468,1483,1494,1504,1514,1525,1534,1541,1546,1549,1566,1563,1569,1567,1559,0,0,0,0,0,1896,1898,1904,1915,1958,1979,1983,1938,1984,1938,1967,0,2310,2291,2289,2288,2288,2288,2288,2284,0,0,2366,2369,0,0,0,0,0,0,0,0,0,0,0,0,0,0,0,0,0,0,0,0,0,0,0,0,0,0,0,0,0,0,0,0,0,0,0,0,0,0,0,0,0,0,0,0,0,0,0,0,0,0,1825,1809,1809,1807,1820,0,0,0,0,0,0,1608,1621,1616,1629,1630,1574,1561,1552,1533,1519,1506,1505,1501,1497,1495,1537,1527,1495,1489,1493,1495,1500,1508,1519,1539,1548,1559,0,2633,2587,2588,2593,2573,2566,0,0,0,0,0,0,0,0,0,0,0,0,0,0,0,0,0,0,18115,18820,18686,0,0,0,0,0,0,0,0,0,0,2655,2653,2650,2616,2583,2583,2585,2588,2613,2624,2628,2636,2644,2673,2658,0,0,0,0,0,0,0,0,0,0,0,0,0,0,0,0,0,0,0,0,0,0,0,0,0,0,0,0,0,0,0,0,0,0,0,0,0,0,650,648,647,647,646,645,645,644,643,643,643,643,643,643,643,643,643,643,643,643,643,643,643,643,643,643,643,642,642,642,642,642,642,642,642,642,642,642,642,642,642,642,642,642,642,642,642,642,642,642,642,643,642,642,642,642,642,642,642,642,642,642,642,642,642,642,642,642,642,642,642,643,643,643,644,644,644,644,645,0,0,0,0,0,0,0,0,0,0,0,0,0,0,0,0,0,0,0,0,0,0,1654,1645,1629,1621,1615,1619,1606,1606,1611,0,0,0,0,0,0,0,0,0,0,0,0,0,0,0,0,0,0,0,0,0,0,0,0,0,1863,1870,1846,1812,1802,1799,1796,1791,1785,1782,1777,1768,1761,1753,1743,1731,1709,1689,1673,1653,1634,1621,1609,1598,1589,1581,1574,1567,1525,1488,0,1403,1403,1400,1398,1396,1391,1391,7040,7088,7107,7103,7092,7078,7063,7052,7051,7060,7077,7096,7112,7121,7120,7109,7088,7060,7024,6985,6943,6899,6855,6812,6772,6741,6720,6714,6710,6725,6742,6766,6769,6765,6754,6734,6710,6689,6686,6687,6690,6699,6708,6714,6700,6699,6691,6674,6641,6578,6573,6618,6608,6600,6607,6768,6632,6670,6723,6764,6791,6775,7020,6165,5952,5737,5559,5481,5426,5384,5347,5318,5297,5263,0,15609,14813,14562,14257,14099,13908,13673,13499,13220,13053,13080,12852,0,0,0,0,0,0,0,0,3686,3550,3536,3546,3567,3442,3284,3243,3221,3214,3339,3346,3335,3339,3346,3355,3363,3370,3377,3381,3384,3385,3382,3377,3369,3358,3346,3331,3315,3296,3275,3254,3232,3213,3196,3181,3166,3153,3140,3126,3113,3101,3089,3070,3060,3052,3045,3041,3075,3075,3037,3036
0,0,0,0,0,0,0,0,0,0,0,0,0,0,0,0,0,0,0,0,0,0,0,0,0,0,0,1599,1604,1604,1604,1603,1602,1601,1600,1599,1598,1597,1596,1596,1596,1596,1596,1597,1598,1598,1599,1600,1601,1602,1604,1605,1606,1607,1608,1608,1609,1608,1608,1608,1608,1609,1609,1610,1612,1614,1617,1620,1625,1630,1638,1646,1658,1680,1708,1713,1722,1727,1738,0,0,0,0,1369,1375,1383,1388,1392,1397,1402,1408,1415,1421,1428,1435,1443,1451,1462,1474,1483,1500,1510,1515,1526,1532,1536,1540,0,0,0,0,0,0,0,0,0,0,1903,1906,1912,1923,1964,1978,1980,1980,1958,1979,1966,0,2308,2294,2292,2291,2291,2292,2293,0,0,0,2385,2410,2415,2381,0,0,0,0,0,0,0,0,0,0,0,0,0,0,0,0,0,0,0,0,0,0,0,0,0,0,0,0,0,0,0,0,0,0,0,0,0,0,0,0,0,0,0,0,0,0,0,0,1819,1818,1807,0,1828,0,0,0,0,0,0,0,1614,1559,1561,1559,1555,1545,1545,1507,1415,1418,1423,1427,1455,1453,1525,1516,1480,1470,1475,1478,1484,1495,1508,1517,1532,0,0,2604,2591,2595,2606,2613,2599,0,0,0,0,0,0,0,0,0,0,0,0,0,0,0,21909,22096,20289,20142,19114,19235,18301,0,0,0,0,0,0,0,0,0,0,0,0,0,0,0,0,0,0,0,0,0,0,0,0,0,0,0,0,0,0,0,0,0,0,0,0,0,0,0,0,0,0,0,0,0,0,0,0,0,0,0,0,0,0,0,0,0,0,0,0,0,0,649,648,647,647,646,645,645,644,644,643,643,643,643,643,643,643,643,643,643,643,643,643,643,643,643,643,643,643,643,642,642,642,642,642,642,642,642,642,642,642,642,642,642,642,642,642,642,642,642,642,643,643,643,642,642,642,642,642,642,642,642,642,642,642,642,642,642,642,642,642,642,642,643,643,643,644,644,644,0,0,0,0,0,0,0,0,0,0,0,0,0,0,0,0,0,0,0,0,0,0,0,1652,1642,1628,1613,1607,1600,1596,1597,1608,0,0,0,0,0,0,0,0,0,0,0,0,0,0,0,0,0,0,0,0,0,0,0,0,0,1855,1839,1816,1806,1794,1791,1789,1782,1777,0,0,0,1526,1529,1532,0,1627,1696,1657,1667,1652,1613,1594,1615,1583,1576,1570,0,1401,1399,1400,1400,1398,1395,1393,1391,1388,1388,7149,7089,7133,7121,7102,7079,7056,7038,7031,7035,7048,7064,7079,7088,7088,7080,7063,7040,7011,6978,6942,6904,6864,6823,6785,6753,6728,6719,6721,6724,6744,6756,6763,6760,6751,6735,6716,6701,6702,6704,6710,6722,6792,6732,6731,6794,6664,6649,6619,6623,6536,6707,6754,6769,6814,6868,6562,6605,7277,7337,7388,7387,7342,6690,6050,5594,5497,5434,5391,5355,5317,5290,5271,5236,0,0,14600,14470,14318,14152,13980,13800,13631,13476,13171,12908,12761,12708,12598,12477,12416,12784,0,0,0,0,0,0,0,0,3284,3258,3204,3178,3172,3171,3304,3308,3310,3317,3326,3334,3341,3348,3351,3355,3356,3355,3351,3344,3336,3326,3314,3300,3284,3266,3247,3228,3211,3195,3181,3168,3155,3142,3129,3117,3105,3093,3078,3068,3060,3053,3048,3049,3046,3041,3039
0,0,0,0,0,0,0,0,0,0,0,0,0,0,0,0,0,0,0,0,0,0,0,0,0,0,1616,1610,1609,1608,1607,1606,1604,1602,1601,1599,1598,1597,1596,1596,1596,1596,1597,1598,1599,1599,1600,1601,1602,1603,1604,1604,1606,1607,1607,1608,1609,1609,1609,1609,1609,1609,1609,1609,1610,1612,1614,1617,1620,1626,1634,1642,1650,0,0,0,0,0,0,1333,1336,1340,1345,1356,1363,1370,1378,1384,1389,1396,1403,1411,1418,1425,1432,1438,1445,1456,1475,1485,1491,1502,1511,1524,1525,1528,1537,0,0,0,0,0,0,0,2013,0,0,0,0,0,0,1976,1978,1979,1979,1970,1975,1968,0,0,2285,2283,2286,2293,2293,2298,0,2357,2380,2398,2476,2409,2369,0,0,0,0,0,0,0,0,0,0,0,0,0,0,0,0,0,0,0,0,0,0,0,0,0,0,0,0,0,0,0,0,0,0,0,0,0,0,0,0,0,0,0,0,0,0,0,0,0,0,0,0,0,0,0,0,0,0,0,0,0,1556,1557,1552,1540,1531,1522,1500,1402,1404,1409,1413,1417,1439,1430,1433,1440,1453,1459,1464,1471,1486,1493,0,0,0,0,0,2602,2606,2603,2600,2597,0,0,0,0,0,0,0,0,0,0,0,0,0,0,23089,22648,21269,20109,19785,19307,19062,19218,0,0,0,0,0,0,0,0,0,0,0,0,0,0,0,0,0,0,0,0,0,0,0,0,0,0,0,0,0,0,0,0,0,0,0,0,0,0,0,0,0,0,0,0,0,0,0,0,0,0,0,0,0,0,0,0,0,0,0,0,0,651,650,648,647,647,646,645,645,644,644,643,643,643,643,643,643,643,644,644,644,644,644,643,643,643,643,643,643,643,643,643,643,642,642,642,642,642,642,642,642,642,642,642,642,642,642,642,642,642,642,642,642,643,643,642,642,642,642,642,642,642,642,642,642,642,642,642,642,642,642,642,642,642,642,643,643,643,644,644,643,0,0,0,0,0,0,0,0,0,0,0,0,0,0,0,0,0,0,0,0,0,0,1620,1615,1608,1603,1599,1590,1589,1588,1583,0,0,0,0,0,0,0,0,0,0,0,0,0,0,0,0,0,0,0,0,0,0,0,0,0,0,1834,1813,1799,1789,1787,1789,1778,1768,1764,1759,1526,1528,1556,1561,1545,1548,0,0,1588,1581,1576,1569,1552,0,0,1399,1398,1387,1387,1402,1396,1393,1390,1388,1386,1384,1384,7161,7140,7167,7147,7120,7089,7057,7032,7018,7015,7023,7035,7046,7053,7054,7047,7035,7018,6996,6970,6941,6909,6873,6835,6797,6763,6733,6721,6719,6726,6738,6749,6758,6758,6752,6738,6723,6704,6770,6780,6793,6811,6827,6838,6838,6833,6816,6792,6635,6513,6765,6685,6604,6534,6915,6466,6482,6531,6665,6748,6880,6903,6870,6793,0,5523,5454,5400,5370,5339,5296,5272,5229,5218,0,15049,14673,14548,14405,14255,14100,13939,13781,13625,13359,13142,12886,12770,12637,12594,12482,12365,12198,12067,11996,0,0,0,0,0,0,0,3177,3147,3142,3139,3149,3289,3285,3292,3299,3300,3307,3313,3321,3325,3327,3327,3324,3319,3312,3304,3294,3283,3269,3255,3239,3224,3209,3195,3182,3169,3156,3144,3131,3119,3108,3097,3084,3074,3066,3059,3054,3051,3047,3044,3042
0,0,0,0,0,0,0,0,0,0,0,0,0,0,0,0,0,0,0,0,0,0,0,0,0,0,1619,1615,1614,1612,1611,1609,1606,1604,1602,1600,1598,1597,1597,1596,1597,1597,1598,1599,1600,1601,1601,1602,1602,1603,1603,1604,1605,1606,1607,1608,1609,1609,1610,1610,1609,1609,1609,1609,1609,1610,1611,1613,1617,1622,0,0,0,0,0,0,1310,1316,1320,1326,1331,1336,1341,1350,1356,1362,1370,1376,1382,1390,1398,1406,1414,1421,1428,1433,1439,1440,1449,1465,1484,1482,1491,1497,1502,1512,0,0,0,0,0,0,0,0,0,0,0,0,0,0,0,1977,1978,1977,1977,1949,1957,1963,1964,0,2282,2280,2284,2289,2294,2301,2321,2343,2376,2394,2475,2476,2366,2366,0,0,0,0,0,0,0,0,0,0,0,0,0,0,0,0,0,0,0,0,0,0,0,0,0,0,0,0,0,0,0,0,0,0,0,0,0,0,0,0,0,0,0,0,0,0,0,0,0,0,0,0,0,0,0,0,0,0,0,0,0,0,0,1528,1520,1495,1368,1384,1385,1390,1394,1391,1408,1415,1419,1427,1438,1447,1452,1461,1470,1476,0,0,0,0,0,0,2606,2603,2595,0,0,0,0,0,0,0,0,0,0,0,0,0,0,0,23261,22960,21394,20051,19771,19300,19075,18942,19459,0,0,0,0,0,0,0,0,0,0,0,0,0,0,0,0,0,0,0,0,0,0,0,0,0,0,0,0,0,0,0,0,0,0,0,0,0,0,0,0,0,0,0,0,0,0,0,0,0,0,0,0,0,0,0,0,0,0,0,0,651,652,649,648,647,646,645,645,644,644,644,643,643,643,643,643,644,644,644,644,644,644,644,644,643,643,643,643,643,643,643,643,642,642,642,642,642,642,642,642,642,642,642,642,642,642,642,642,642,642,642,642,642,642,642,642,642,642,642,642,642,642,642,642,642,642,642,642,642,642,642,642,642,642,643,643,643,643,644,643,0,0,0,0,0,0,0,0,0,0,0,0,0,0,0,0,0,0,0,0,0,0,0,1601,1590,1596,1592,1584,1583,1582,1576,0,0,0,0,0,0,0,0,0,0,0,0,0,0,0,0,0,0,0,0,0,0,0,0,0,0,0,1799,1781,1781,1779,1785,1773,1772,1762,0,1527,1552,1559,1543,1578,1580,1576,1568,0,1565,0,1559,0,1396,1396,1397,1397,1384,1397,1395,1391,1388,1385,1383,1382,1381,1380,7257,7238,7199,7172,7139,7100,7062,7031,7009,7000,7001,7008,7016,7021,7021,7017,7009,6998,6983,6964,6942,6918,6888,6852,6813,6778,6738,6722,6716,6721,6732,6744,6757,6759,6758,6794,6785,6715,6717,6722,6730,6745,6853,6863,6866,6858,6837,6811,6739,6750,6729,6637,6546,6466,6409,6384,6394,6437,6614,6694,9092,0,0,0,0,5471,5422,5374,5361,5334,5286,5257,5187,0,14897,14917,14714,14592,14462,14335,14204,14065,13921,13769,13614,13418,13212,12986,12787,12590,12430,12275,12106,11939,11764,11723,11600,0,0,0,0,0,0,3130,3126,3119,3128,3142,3264,3275,3276,3274,3272,3280,3292,3296,3300,3299,3297,3293,3288,3281,3274,3265,3255,3244,3232,3219,3207,3194,3182,3170,3157,3145,3133,3121,3109,3099,3087,3078,3070,3063,3057,3053,3049,3045,3044
0,0,0,0,0,0,0,0,0,0,0,0,0,0,0,0,0,0,0,0,0,0,0,0,0,0,1619,1621,1618,1616,1614,1611,1608,1605,1603,1601,1599,1598,1597,1596,1597,1597,1598,1599,1600,1601,1602,1602,1602,1602,1603,1603,1604,1605,1607,1608,1609,1610,1611,1611,1611,1610,1610,1609,1609,1609,1609,1611,1615,0,0,0,0,0,1299,1303,1303,1308,1315,1321,1326,1331,1337,1344,1349,1355,1362,1369,1376,1384,1393,1401,1409,1416,1424,1428,1432,1434,1454,1461,1466,1480,1487,1493,1497,0,0,0,0,0,0,0,0,2027,2028,2029,2031,2034,0,0,1980,1978,1977,1976,1974,1946,1953,1959,1965,1946,1946,1945,2279,2285,2291,2298,2311,2326,0,2397,0,0,0,0,0,0,0,0,0,0,0,0,1888,1886,1882,1877,1933,1929,1926,1923,1921,1888,1886,1885,1885,0,0,1896,1895,1887,1900,0,0,0,0,0,0,0,0,0,0,0,0,0,0,0,0,0,0,0,0,0,0,0,0,0,0,0,0,0,0,0,0,0,0,0,0,1520,1329,1342,1356,1365,1374,1378,1376,1380,1390,1397,1406,1417,1428,1439,1444,1452,0,0,0,0,0,0,0,0,2609,2606,0,0,0,0,0,0,0,0,0,0,0,0,0,0,0,0,25601,22983,22430,20916,20784,19508,19105,18991,18162,0,0,0,0,0,0,0,0,0,0,0,0,0,0,0,0,0,0,0,0,0,0,0,0,0,0,0,0,0,0,0,0,0,0,0,0,0,0,0,0,0,0,0,0,0,0,0,0,0,0,0,0,0,0,0,0,0,0,0,0,651,652,652,649,647,646,646,645,644,644,644,644,644,644,644,644,644,644,644,644,644,644,644,644,643,643,643,643,643,643,643,643,643,643,642,642,642,642,642,642,642,642,642,642,642,642,642,642,642,642,642,642,642,642,642,642,642,642,642,642,642,642,642,642,642,642,642,642,642,642,642,642,642,642,643,643,643,643,644,644,0,0,0,0,0,0,0,0,0,0,0,0,0,0,0,0,0,0,0,0,0,0,0,0,1594,1589,1584,1565,1560,1567,1571,0,0,0,0,0,0,0,0,0,0,0,0,0,0,0,0,0,0,0,0,0,0,0,0,0,0,0,1781,1778,1777,1776,1775,1774,1773,1768,1755,1528,1535,1563,1549,1577,1577,1573,1566,1563,1558,1547,1428,1399,1397,1396,1375,1376,1380,1392,1390,1386,1383,1381,1379,1377,1376,1376,7273,7259,7219,7188,7151,7109,7066,7030,7002,6987,6983,6984,6988,6990,6991,6990,6986,6982,6974,6964,6950,6937,6914,6881,6841,6802,6746,6726,6712,6819,6725,6732,6751,6758,6557,6735,6723,6727,6732,6737,6744,6757,6872,6878,6885,6873,6846,6736,6624,6788,6703,6606,6509,6423,6361,6330,6331,6359,0,0,12146,12160,0,0,0,5372,5374,5339,5356,5325,0,0,0,0,14793,14856,14698,14583,14470,14371,14269,14153,14026,13878,13741,13503,13160,13012,12780,12555,12357,12154,11963,11785,11612,11431,11498,10854,0,0,0,0,0,0,0,3109,3117,3129,3129,3253,3241,3236,3249,3256,3268,3273,3276,3275,3273,3270,3266,3262,3256,3250,3242,3234,3225,3215,3204,3194,3182,3170,3158,3146,3134,3122,3111,3100,3090,3081,3073,3065,3059,3054,3050,3046,3044
0,0,0,0,0,0,0,0,0,0,0,0,0,0,0,0,0,0,0,0,0,0,0,0,0,0,1623,1624,1622,1620,1617,1613,1610,1607,1604,1601,1599,1598,1596,1596,1596,1597,1598,1600,1601,1602,1602,1602,1602,1601,1602,1602,1603,1604,1606,1607,1609,1610,1611,1612,1612,1611,1610,1610,1609,1608,1609,1609,0,0,0,0,0,0,1297,1295,1300,1305,1311,1316,1322,1327,1332,1338,1344,1350,1356,1362,1370,1377,1387,1396,1404,1410,1419,1423,1428,1443,1449,1374,1368,1360,1354,1352,0,0,0,0,0,0,0,0,0,2026,2026,2028,2030,0,0,0,1980,1978,1975,1974,1972,1981,1961,1963,1970,1975,1975,1944,2276,2282,2289,2294,2302,2313,0,0,0,0,0,0,0,0,0,0,0,0,0,1897,1913,1884,1881,1875,1877,1874,1868,1862,1855,1850,1887,1886,1886,1888,1889,1885,1886,1887,1899,0,0,0,0,0,0,0,0,0,0,0,0,0,0,0,0,0,0,0,0,0,0,0,0,0,0,0,0,0,0,0,0,0,0,1302,1301,1300,1313,1334,1351,1352,1329,1344,1346,1363,1374,1382,1394,1409,1419,1430,1437,0,0,0,0,0,0,0,0,0,0,0,0,0,0,0,0,0,0,0,0,0,0,0,0,0,0,0,0,0,0,0,0,0,19298,19165,22634,0,0,0,0,0,0,0,0,0,0,0,0,0,0,0,0,0,0,0,0,0,0,0,0,0,0,0,0,0,0,0,0,0,0,0,0,0,0,0,0,0,0,0,0,0,0,0,0,0,0,0,0,0,0,0,0,0,0,0,0,653,652,651,651,647,647,646,645,645,644,644,644,644,644,644,644,644,644,644,644,644,644,643,643,643,643,643,643,643,643,643,643,643,643,643,643,643,642,642,642,642,642,642,642,642,642,642,642,642,642,642,642,642,642,642,642,642,642,642,642,642,642,642,642,642,642,642,642,642,642,642,642,642,642,643,643,643,643,644,644,0,0,0,0,0,0,0,0,0,0,0,0,0,0,0,0,0,0,0,0,0,0,0,0,0,0,0,0,1560,1567,0,0,0,0,0,0,0,0,0,9844,10493,10265,0,0,0,0,0,0,0,0,0,0,0,0,0,0,0,0,1768,1773,1773,1773,1773,1773,1772,1770,1762,1751,1538,1566,1557,1577,1576,1571,1565,1559,1554,0,1409,1402,1398,1375,1375,1375,1391,1387,1385,1381,1378,1376,1374,1373,1372,1372,7289,7281,7224,7192,7154,7110,7066,7029,6996,6976,6966,6961,6961,6961,6962,6963,6964,6969,6969,6969,6967,6969,6958,6930,6886,6843,6758,6739,6704,6701,6711,6641,6733,0,0,0,6761,6550,6573,6851,6859,6872,6884,6778,6935,6899,0,0,0,0,0,0,0,0,0,8657,0,8933,9218,10279,10796,10783,0,0,0,0,5284,5428,5321,5335,0,0,0,0,14299,14077,14634,14524,14425,14357,14283,14188,14075,13933,13764,13553,13296,13033,12760,12506,12276,12030,11818,11625,11420,11248,11039,10908,10774,10028,0,0,0,0,0,0,0,0,3230,3220,3215,3221,3242,3234,3250,3254,3257,3255,3253,3252,3249,3246,3242,3237,3232,3226,3219,3211,3202,3193,3182,3171,3159,3147,3135,3123,3112,3102,3091,3082,3074,3067,3060,3055,3050,3046,3044
0,0,0,0,0,0,0,0,0,0,0,0,0,0,0,0,0,0,0,0,0,0,0,0,0,0,0,1627,1625,1621,1618,1614,1611,1607,1604,1601,1599,1597,1595,1595,1595,1596,1597,1599,1600,1602,1601,1601,1601,1600,1600,1601,1601,1603,1604,1606,1609,1610,1612,1613,1612,1612,1611,1610,1609,1608,1608,0,0,0,0,0,0,0,1295,1293,1297,1301,1307,1312,1318,1323,1329,1334,1340,1345,1351,1357,1364,1371,1381,1388,1396,1404,1410,1419,1397,1393,1373,1362,1356,1350,1346,1346,1363,1362,1361,0,0,0,0,0,0,0,2039,2039,2038,0,0,0,0,0,1974,1972,1969,1978,1975,1972,1967,1973,1973,1973,0,0,0,2293,2298,0,0,0,0,0,0,0,0,0,0,0,0,0,1924,1903,1909,1886,1895,1898,1891,1869,1863,1858,1856,1851,1887,1886,1887,1883,1874,1878,1866,1881,1880,0,0,0,0,0,0,1311,1314,0,0,0,0,0,0,0,0,0,0,0,0,0,0,0,0,0,0,0,0,0,0,0,0,0,0,1297,1294,1296,1313,1325,1338,1339,1311,1321,1330,1344,1360,1369,1386,1405,1415,0,0,0,0,0,0,0,0,0,0,0,0,0,0,0,0,0,0,0,0,0,0,0,0,0,0,0,0,0,0,0,0,0,0,0,0,0,0,0,0,0,0,0,0,0,0,0,0,0,0,0,0,0,0,0,0,0,0,0,0,0,0,0,0,0,0,0,0,0,0,0,0,0,0,0,0,0,0,0,0,0,0,0,0,0,0,0,0,0,0,0,0,0,0,0,0,0,0,653,653,652,650,648,647,646,645,645,645,644,644,644,644,644,644,644,644,643,643,643,643,643,643,643,643,643,643,643,643,643,643,643,643,643,643,643,643,642,642,642,642,642,642,642,642,642,642,642,642,642,642,642,642,642,642,642,642,642,642,642,642,642,642,642,642,642,642,642,642,642,642,642,642,643,643,643,643,644,644,0,0,2874,2839,0,0,0,0,0,0,0,0,0,0,0,0,0,0,0,0,0,0,0,0,0,0,0,0,0,0,0,0,0,0,0,0,0,0,10053,10263,9825,9534,9639,0,0,0,0,0,0,0,0,0,0,0,0,0,0,0,1769,1771,1769,1774,1774,1774,1774,1769,1765,1750,1615,1551,1566,1578,1567,1571,1581,1537,1561,0,1409,1403,1398,1375,1386,1375,1387,1384,1381,1377,1374,1371,1369,1368,1367,1367,1367,7232,7216,7182,7145,7102,7059,7025,6988,6966,6950,6940,6935,6932,6933,6937,6943,6957,6967,6979,6992,7019,7026,7006,6957,6908,6783,6753,6611,6623,0,0,0,0,0,6240,6212,0,6553,6870,6870,6882,7020,7019,0,0,26101,25060,26039,25659,23233,0,0,0,0,8909,0,11166,0,11282,11354,12045,0,0,0,0,5259,5394,5355,5299,5359,5303,5347,5340,0,13958,13814,13710,13673,14303,14247,14167,14068,13933,13768,13556,13300,13024,12740,12456,12206,11948,11719,11543,11229,11061,10906,10860,10734,10675,9867,9728,9645,9553,9490,9509,0,0,3104,3216,3214,3200,3218,3236,3241,3243,3245,3241,3239,3238,3237,3235,3232,3229,3225,3220,3215,3208,3201,3192,3182,3172,3160,3148,3137,3125,3114,3103,3093,3083,3075,3067,3060,3054,3049,3045,3043
0,0,0,0,0,0,0,0,0,0,0,0,0,0,0,0,0,0,0,0,0,0,0,0,0,0,0,0,1628,1625,1620,1615,1610,1606,1603,1601,1600,1602,1598,1595,1595,0,0,1620,1607,1606,1605,1605,1600,1599,1599,1599,1600,1601,1603,1605,1609,1610,1611,1612,0,1608,1608,1610,0,0,0,0,0,0,0,0,0,0,1306,1291,1293,1298,1304,1309,1315,1320,1325,1331,1336,1341,1347,1353,1360,1366,1372,1390,1392,1421,1408,1408,1392,1388,1368,1351,1345,1341,1339,1338,1363,1352,1353,0,0,0,0,0,0,0,2032,2040,2039,2040,0,0,0,1967,1966,1962,1951,1985,1973,1970,1963,1971,1971,1970,0,0,0,0,0,0,0,0,0,0,0,0,0,0,0,0,0,0,0,1910,1895,1900,1957,1956,1929,1904,1911,1905,1874,1909,1909,1896,1902,1885,1901,1902,1894,1874,0,0,0,0,0,0,1309,1308,1308,0,0,0,0,0,0,0,0,0,0,0,0,0,0,0,0,0,0,0,0,0,0,0,0,1276,1287,1288,1276,1263,1274,1252,1258,1270,1290,1305,1315,1331,1350,1360,0,0,0,0,0,0,0,0,0,0,0,0,0,0,0,0,65326,65163,64655,63935,63096,62223,0,0,0,0,0,0,0,0,0,0,0,0,0,0,0,0,0,0,0,0,0,0,0,0,0,0,0,0,0,0,0,0,0,0,1290,1297,1294,1282,1280,1278,1274,1272,1268,1257,1265,1267,1262,0,0,0,0,0,0,0,0,0,0,0,0,0,0,0,0,0,0,0,0,0,0,0,0,0,0,0,0,0,0,0,0,653,653,652,651,649,647,646,646,645,645,644,644,644,644,644,644,643,643,643,643,643,643,643,643,643,643,643,643,643,643,643,643,643,643,643,643,643,643,642,642,642,642,642,642,642,642,642,642,642,642,642,642,642,642,642,642,643,643,643,643,642,642,642,642,642,642,642,642,642,642,642,642,642,643,643,643,643,644,644,644,2860,2843,2842,2836,0,0,0,0,0,0,0,0,0,0,0,0,0,0,0,0,0,0,0,0,0,0,0,0,0,0,0,0,0,0,0,0,0,22141,10595,10241,10039,9778,9605,9235,0,0,0,0,0,0,0,0,0,0,0,0,0,0,1770,1768,1764,1766,1767,1768,1769,1768,1762,1758,1750,0,1577,1576,1556,1592,1586,1582,1578,1494,1480,0,1375,1375,1375,1388,1386,1382,1378,1374,1370,1367,1365,1363,1363,1362,1364,6911,7177,7088,7087,7049,7015,7003,6979,6956,6948,6921,6913,6906,6905,6911,6922,6948,6966,6993,7024,7090,7134,7126,6496,6447,6678,6631,6460,0,0,19820,20756,0,0,0,0,0,0,0,0,0,0,0,25886,26197,26461,26454,26412,25917,25542,25342,24795,0,0,0,0,0,0,0,0,0,0,0,0,0,0,0,5302,5295,5304,5290,5282,5311,0,13851,13706,13581,13523,14212,14174,14104,14017,13887,13731,13525,13277,12996,12701,12411,12140,11787,11532,11327,11175,10851,10718,10759,10716,10580,9791,9664,9581,9502,9461,9450,9433,9421,9399,0,0,3214,3253,3213,3218,3224,3237,3229,3226,3231,3230,3229,3228,3225,3222,3218,3212,3207,3200,3192,3183,3173,3162,3150,3139,3127,3116,3104,3093,3083,3074,3066,3058,3052,3047,3043,3040
0,0,0,0,0,0,0,0,0,0,0,0,0,0,0,0,0,0,0,0,0,0,0,0,0,0,0,0,0,0,0,0,0,0,0,0,1600,0,0,0,0,0,0,1590,1601,1598,1597,1596,1596,1595,1602,1598,1598,1599,1601,1602,1605,0,0,0,0,0,0,0,0,0,0,0,0,0,1123,1121,1124,1125,0,1281,1285,1296,1302,1307,1313,1318,1323,1328,1334,1339,1344,1350,1355,1361,1370,1362,1369,1373,5472,1396,0,0,0,0,0,0,0,0,0,1353,1353,1362,0,0,0,0,0,0,0,0,0,0,0,0,0,0,0,0,1945,1942,1980,1975,1959,1969,0,0,0,0,0,0,0,0,0,0,0,0,0,0,7622,7627,7638,7536,7504,0,0,0,1928,1927,1910,1899,0,0,0,0,0,0,0,0,1921,1925,1901,0,0,0,0,0,0,0,0,0,1308,1307,1306,0,0,0,0,0,0,0,0,0,0,0,0,0,0,0,0,0,0,0,0,0,0,0,0,1275,1275,0,1275,1272,1238,1240,1249,1259,1276,1292,1303,1320,0,0,0,0,0,0,0,0,0,0,0,0,0,0,0,0,0,0,65229,64961,64160,62835,61423,60506,0,0,0,0,0,0,0,0,0,0,0,0,0,0,0,0,0,0,0,0,0,0,0,0,0,0,0,0,0,0,0,1297,1294,1286,1283,1297,1277,1276,1274,1273,1271,1271,1269,1267,1265,1261,1259,1258,1248,1246,1239,0,0,0,0,0,0,0,0,0,0,0,0,0,0,0,0,0,0,0,0,0,0,0,0,0,0,0,653,654,653,652,650,648,647,646,646,645,645,644,644,644,644,644,643,643,643,643,643,643,643,643,643,643,643,643,643,643,643,643,643,643,643,643,643,643,643,642,642,642,642,642,642,642,642,642,642,642,642,642,642,642,642,642,643,643,643,643,643,643,642,642,642,642,642,642,642,642,642,642,642,642,643,643,643,643,644,644,644,2858,2840,2842,2804,2837,0,0,0,0,0,0,0,0,0,0,0,0,0,0,0,0,0,0,0,0,0,0,0,0,0,0,0,0,0,0,0,0,0,0,10597,9513,9168,8991,9178,0,0,0,0,0,0,0,0,0,0,0,0,0,0,0,1761,1757,1757,1759,1761,1763,1752,1750,1740,1745,1725,1588,1585,1582,1603,1594,1587,1583,1568,1485,0,1397,1376,1386,1387,1386,1382,1377,1373,1368,1364,1361,1359,1358,1358,1356,7223,6835,6815,6793,6880,6861,7092,7076,7059,7035,6943,6985,6895,6893,6900,6907,6939,6965,7010,7075,7205,7275,6679,6505,6454,6398,6386,0,19751,19797,20054,20911,0,0,0,0,0,0,0,0,0,0,26090,26395,26592,26771,26861,26865,26696,26369,25649,26993,26175,22400,23291,20696,20175,18921,21529,22175,0,0,0,0,0,0,0,5326,5282,5275,5261,5238,5271,5233,13653,13538,13451,12977,13851,13804,14045,13945,13815,13672,13474,13238,12959,12659,12360,12074,11626,11456,11141,10889,10618,10470,10626,10618,10438,10180,9586,9511,9444,9412,9399,9373,9369,9350,0,0,0,0,3227,3217,3221,3228,3243,3225,3230,3229,3230,3228,3226,3222,3217,3212,3206,3200,3192,3183,3174,3163,3152,3141,3129,3117,3105,3093,3082,3072,3063,3055,3048,3042,3038,3036
0,0,0,0,0,0,0,0,0,0,0,0,0,0,0,0,0,0,0,0,0,0,0,0,0,0,0,0,0,0,0,0,0,0,0,0,0,0,0,0,0,0,0,1591,1590,1590,1592,1595,1594,1593,1593,1600,1596,1597,1599,1601,0,0,0,0,0,0,0,0,1103,1101,1103,1105,1107,1110,1113,1117,1119,1122,1119,1118,1278,1295,1298,1307,1312,1317,1322,1327,1332,1336,1342,1346,1348,1358,0,0,5470,5474,5478,5488,5493,0,0,0,0,0,0,0,0,0,0,0,0,0,0,0,0,0,0,0,0,0,0,0,0,0,0,1939,1942,1938,1934,1942,1944,1933,0,0,0,0,0,0,0,0,0,0,0,0,0,7739,7718,7593,7607,7496,7598,8024,0,0,0,0,1901,0,0,0,0,0,0,0,0,0,0,0,0,0,0,0,0,0,0,0,0,0,0,1301,1301,0,0,0,0,0,0,0,0,0,0,0,0,0,0,0,0,0,0,0,0,0,0,0,0,0,0,0,1204,1210,1225,1230,1238,1247,1264,1284,1289,0,0,0,0,0,0,0,0,0,0,0,0,0,0,0,0,0,0,0,65082,64685,63410,60677,58266,57168,54221,0,0,0,0,0,0,0,0,0,0,0,0,0,0,0,0,0,0,0,0,0,0,0,0,0,0,0,0,0,1237,1311,1308,1304,1300,1297,1275,1274,1272,1271,1268,1269,1267,1266,1264,1261,1257,1251,1246,1243,1237,1233,1227,1224,1220,0,0,0,0,0,0,0,0,0,0,0,0,0,0,0,0,0,0,0,0,0,0,0,658,655,654,653,650,648,647,646,646,645,645,644,644,644,644,644,643,643,643,643,643,643,643,643,643,643,643,643,643,643,643,643,643,643,643,643,643,643,643,642,642,642,642,642,642,642,642,642,642,642,642,642,642,642,643,643,643,643,643,643,643,643,643,642,642,642,642,642,642,642,642,642,642,643,643,643,643,644,644,644,644,2857,2841,2842,2804,2841,2821,0,0,0,0,0,0,0,0,0,0,0,0,0,0,0,0,0,0,0,0,0,0,0,0,19111,0,0,0,0,23173,25343,0,12822,12521,11641,9159,8943,0,0,0,0,0,0,0,0,0,0,0,0,0,0,0,0,0,1749,1751,1754,1759,1763,1704,1738,1730,1717,1722,1599,1594,1589,1612,1602,1593,1587,1569,1488,0,0,1387,1387,1388,1389,1385,1379,1373,1368,1363,1358,1356,1354,1354,1353,7144,6869,7256,7232,7209,7187,7000,6984,7078,7066,6939,6986,6992,6887,6893,6907,6928,6965,6995,7044,7129,6819,6801,6522,6474,8804,0,19286,19042,19146,19094,20847,0,0,0,0,0,0,0,0,0,0,26220,26451,26743,26999,27162,27207,27069,26756,26284,26296,25604,24445,23747,23164,22782,22199,22171,22282,22041,0,0,0,0,0,5239,5281,5265,5255,5237,5215,5189,5166,5123,5096,0,12465,12858,13722,13972,13878,13738,13608,13416,13194,12920,12621,12320,12023,11788,11130,10914,10637,10334,10151,9980,9767,9302,8889,9022,8976,9374,9353,9338,9315,9321,9305,0,0,0,0,0,3247,3236,3241,3265,3235,3239,3234,3234,3231,3229,3224,3219,3214,3207,3200,3193,3184,3175,3165,3154,3143,3131,3119,3106,3093,3081,3069,3059,3050,3043,3037,3032,3030
0,0,0,0,0,0,0,0,0,0,0,0,0,0,0,0,0,0,0,0,0,0,0,0,0,0,0,0,0,0,0,0,0,0,0,0,0,0,0,0,0,0,0,0,1581,1587,1588,1588,1590,1590,1591,1592,1594,1585,0,0,0,0,0,0,0,0,0,0,1099,1100,1100,1102,1104,1106,1111,1113,1115,1117,1118,1115,1112,0,1285,1292,1302,1314,1318,1323,1330,1334,0,0,1345,0,0,0,5480,5483,5486,5493,5498,0,0,0,0,0,0,0,0,0,0,0,0,0,0,0,0,0,0,0,0,0,0,0,0,0,0,0,1940,1938,1933,1930,1930,1924,0,0,0,0,0,0,0,0,0,0,0,0,0,7720,7700,7790,7775,7789,7559,7351,0,0,0,0,0,0,0,0,0,0,0,0,0,0,0,0,0,0,0,0,0,0,0,0,0,0,0,0,0,0,0,0,0,0,0,0,0,0,0,0,0,0,0,0,0,0,0,0,0,0,0,1211,1208,1204,1189,1188,1196,1203,1214,1220,1228,1235,1255,0,0,0,0,0,0,0,0,0,0,0,0,0,0,0,0,0,0,0,0,0,64935,64405,61646,57715,54018,52334,51784,50062,50768,0,0,0,0,0,0,0,0,0,0,0,0,0,0,0,0,0,0,0,0,0,0,0,0,0,0,1228,1232,1311,1308,1304,1300,1297,1293,1270,1270,1268,1265,1267,1265,1264,1262,1259,1255,1248,1244,1241,1233,1229,1201,1200,1208,1203,1205,0,0,0,0,0,0,0,0,0,0,0,0,0,0,0,0,0,0,0,0,0,0,655,655,657,649,648,647,646,646,645,645,645,644,644,644,644,643,643,643,643,643,643,643,643,643,643,643,643,643,643,643,643,643,643,643,643,643,643,643,642,642,642,642,642,642,642,642,642,642,642,642,642,642,643,643,643,643,643,643,643,643,643,643,642,642,642,642,642,642,642,642,642,643,643,643,643,643,644,644,644,644,0,2842,2841,2841,2842,0,0,0,0,0,0,0,0,0,0,0,0,0,0,0,0,0,0,0,0,0,0,0,0,20557,21148,0,37159,0,35840,27772,21772,18792,13630,12485,12241,12360,0,0,0,0,0,0,0,0,0,0,0,0,0,0,0,0,1747,1738,1741,1744,1747,1673,1670,1686,1733,1679,1666,1635,1609,1602,1596,1620,1608,1597,1589,1585,0,0,0,1388,1389,1391,1395,1391,1384,1377,1369,1363,1357,1353,1351,1349,1350,7132,6829,7233,7210,7079,7066,7058,6989,6974,6962,6933,6918,6945,6925,6895,6859,6822,6967,6994,7050,6866,6987,7012,8431,8515,0,0,0,0,0,0,0,0,0,0,0,0,0,0,0,0,0,26050,26408,26745,27055,27266,27336,27222,26928,26482,26242,25584,24654,23976,23385,22932,22472,22270,22168,21961,20165,0,0,0,0,5271,5267,5254,5237,5214,5186,5152,5112,5053,5020,4995,4973,11927,12496,13184,13251,13673,13556,13363,13156,12885,12590,12294,11794,11383,10946,10641,10132,9886,9733,9344,9047,8915,8846,8795,8929,9307,9298,9277,0,0,0,0,0,0,0,0,0,0,0,3287,3313,3251,3241,3240,3237,3234,3228,3222,3216,3210,3202,3194,3185,3176,3166,3156,3145,3133,3120,3106,3092,3079,3066,3055,3045,3037,3031,3026,3024
0,0,0,0,0,0,0,0,0,0,0,0,0,0,0,0,0,0,0,0,0,0,0,0,0,0,0,0,0,0,0,0,0,0,0,0,1040,1041,1041,1042,1039,0,0,0,0,1586,1586,1587,1587,1589,1590,1591,1582,0,0,0,0,0,0,0,0,0,1098,1097,1097,1093,1095,1097,1099,1101,1104,1107,1109,1111,1111,1109,1108,1104,0,1294,1295,1301,1318,1324,1327,1333,1335,0,0,0,0,0,5489,5490,5493,5498,5502,0,0,0,0,0,0,0,0,0,0,0,0,0,0,0,0,0,0,0,0,0,0,0,0,0,0,0,1939,1937,1935,1928,1927,0,0,0,0,0,0,0,0,0,0,0,0,0,0,7673,7671,7516,7758,7777,7527,0,0,0,0,0,0,0,0,0,0,0,0,0,0,0,0,0,0,0,0,0,0,0,0,0,0,0,0,0,0,0,0,0,0,0,0,0,0,0,0,0,0,0,0,0,0,0,0,0,0,0,0,0,0,0,1176,1182,1189,1195,1204,1212,1220,1226,0,0,0,0,0,0,0,0,0,0,0,0,0,0,0,0,0,0,0,0,0,0,0,0,0,54123,48668,44595,43882,44555,41891,0,0,0,0,0,0,0,0,0,0,0,0,0,0,0,0,0,0,0,0,0,0,0,0,0,0,1170,1169,1168,1237,1237,0,1162,1163,1164,1166,1167,1268,1273,1262,1253,1255,1252,1248,1236,1232,1233,1224,1208,1193,1203,1201,1198,1195,1191,1191,1187,0,0,0,0,0,0,0,0,0,0,0,0,0,0,0,0,0,0,0,0,0,651,649,648,647,646,646,645,645,645,644,644,644,644,643,643,643,643,643,643,643,643,643,643,643,643,643,643,643,643,643,643,643,643,643,643,643,642,642,642,642,642,642,642,642,642,642,642,642,642,643,643,643,643,643,643,643,643,643,643,643,643,642,642,642,642,642,642,642,642,643,643,643,643,643,644,644,644,644,0,0,0,0,0,0,0,0,0,0,0,0,0,0,0,0,0,0,0,0,0,0,0,0,0,0,0,0,21717,21874,21504,0,42255,0,0,25198,21499,17277,15906,13507,13697,13263,12938,0,0,0,0,0,0,0,0,0,0,0,0,0,0,0,1744,1734,1736,1656,1656,1669,1661,1669,1743,1661,1651,1631,1613,1606,1600,1594,1614,1600,1576,1583,1574,1554,0,1450,0,1396,1406,1402,1393,1383,1373,1365,1357,1352,1349,1348,1347,7127,7041,7087,7075,7069,7058,7057,6996,6981,6963,6934,6949,6945,27472,27405,0,0,0,0,6835,6975,7225,7296,8228,8297,0,0,0,0,0,0,0,0,0,0,0,0,0,0,0,0,24142,25710,26151,26546,26891,27123,27207,27113,26849,26448,26110,25516,24751,24111,23520,23014,22524,22192,21932,21649,20978,0,0,0,0,5274,5261,5243,5222,5193,5159,5121,5078,5024,4985,4922,4881,4836,4802,4748,4870,0,12449,13021,13143,12460,12124,11739,10968,10717,10452,10113,9878,9666,9505,9242,9113,9013,8952,8921,8865,9223,0,0,0,0,0,0,0,0,0,0,0,0,0,0,3307,3299,3260,3259,3242,3240,3233,3226,3220,3213,3205,3196,3187,3178,3168,3157,3146,3134,3121,3106,3091,3077,3063,3051,3041,3032,3025,3020,3018
0,0,0,0,0,0,0,0,0,0,0,0,0,0,0,0,0,0,0,0,0,0,0,0,0,0,0,0,0,0,0,0,0,0,0,1039,1040,1040,1041,1046,1048,1051,1062,1066,0,0,0,0,0,1587,0,0,0,0,0,0,0,0,0,0,0,1097,1090,1088,1088,1089,1091,1092,1094,1096,1098,1100,1102,1103,1102,1101,1097,1097,1097,0,0,0,0,0,0,0,0,0,0,0,0,0,5496,5495,5497,5501,5504,0,0,0,0,0,0,0,0,0,0,0,0,0,0,0,0,0,0,0,0,0,0,0,0,0,0,0,0,0,1935,0,0,0,0,0,0,0,0,0,0,0,0,0,0,0,0,7387,7660,7701,7343,7398,7400,0,0,0,0,0,0,0,0,0,0,0,0,0,0,0,0,0,0,0,0,0,0,0,0,0,0,0,0,0,0,0,0,0,0,0,0,0,0,0,0,0,0,0,0,0,0,0,0,0,0,0,0,0,1161,1159,1168,1174,1181,1187,1195,1206,1215,1219,0,0,0,0,0,0,0,0,0,0,0,0,0,0,0,0,0,0,0,0,0,0,0,0,0,0,44757,41272,40715,34595,34358,0,0,0,0,0,0,0,0,0,0,0,0,0,0,0,0,0,0,0,0,0,0,0,0,1185,1168,1168,1166,1164,1160,1159,1158,1160,1160,1175,1163,1168,1165,1157,1148,0,0,0,0,1233,1229,1232,1198,1181,1184,1185,1195,1193,1191,1188,1185,1185,1182,0,0,0,0,0,0,0,0,0,0,0,0,0,0,0,0,0,0,0,0,0,650,647,647,646,646,645,645,645,644,644,644,644,644,643,643,643,643,643,643,643,643,643,643,643,643,643,643,643,643,643,643,643,643,643,643,642,642,642,642,642,642,642,642,642,642,642,642,643,643,643,643,643,643,643,643,643,643,643,643,643,642,642,642,642,642,642,642,642,643,643,643,643,644,644,644,644,644,0,0,0,0,0,0,0,0,0,0,0,0,0,0,0,0,0,0,0,0,0,0,0,0,0,0,0,0,0,0,28885,36699,38012,35571,33777,27340,23251,20341,16585,15398,14943,14151,14004,0,0,0,0,0,0,0,0,0,0,0,0,0,0,0,0,1743,1732,1653,1653,0,1669,1655,1633,1647,1640,1626,1614,1639,1629,1596,1619,1602,1572,1579,1568,1555,1542,1532,1512,1451,1429,1418,1404,1392,1380,1369,1358,1351,1348,1346,0,0,7029,7082,7069,7063,7144,7065,7014,6970,6960,31321,28252,28126,33560,33095,32923,27143,25914,0,0,7062,7510,8347,8470,8513,9447,0,0,0,0,0,0,0,0,19558,16440,16737,18925,18394,19502,22511,23538,25197,25721,26173,26532,26764,26846,26767,26542,26200,25858,25352,24730,24152,23590,23067,22559,22149,21793,21447,20938,20817,0,0,0,5239,5256,5234,5208,5175,5136,5094,5048,4996,4953,4897,4854,4807,4769,4741,4689,4653,4629,4535,0,0,12835,0,0,0,0,9522,9633,9402,9370,9171,9193,9052,9085,0,0,0,0,0,0,0,0,0,0,0,0,0,0,0,0,0,0,0,0,3360,3291,3291,3244,3230,3224,3217,3208,3199,3189,3179,3169,3159,3148,3135,3121,3106,3091,3075,3061,3048,3037,3027,3020,3015,3012
0,0,0,0,0,0,0,0,0,0,0,0,0,0,0,0,0,0,0,0,0,0,0,0,0,0,0,0,0,0,0,0,0,0,0,1038,1039,1039,1040,1045,1047,1049,1060,1059,1061,0,0,0,0,0,0,0,0,0,0,0,0,0,0,0,1097,1087,1084,1084,1084,1085,1086,1087,1088,1090,1092,1093,1095,1095,1096,1096,1094,1092,1091,1091,0,0,0,0,0,0,0,0,0,0,0,0,0,0,0,0,0,0,0,0,0,0,0,0,0,0,0,0,0,0,0,0,0,0,0,0,0,0,0,0,0,0,0,0,0,0,0,0,0,0,0,0,0,0,0,0,0,0,0,0,0,0,0,0,0,0,0,0,0,0,0,0,0,0,0,0,0,0,0,0,0,0,0,0,0,0,0,0,0,0,0,0,0,0,0,0,0,0,0,0,0,0,0,0,0,0,0,0,0,0,0,0,0,0,0,0,0,0,0,0,1136,1144,1147,1153,1159,1166,1172,1178,1187,1197,0,0,0,0,0,0,0,0,0,0,0,0,0,0,0,0,0,0,0,0,0,0,0,0,0,0,0,0,0,31343,31048,37070,0,0,0,0,0,0,0,0,0,0,0,0,0,0,0,0,0,0,0,0,0,0,0,0,0,1175,1166,1165,1162,1160,1157,1155,1155,1155,1156,1149,1149,1149,1155,1154,1151,1145,0,0,1175,1177,1179,1181,1184,1171,1175,1177,1188,1187,1186,1185,1182,1181,1181,0,0,0,0,0,0,0,0,0,0,0,0,0,0,0,0,0,0,0,0,0,0,647,646,646,646,645,645,645,644,644,644,644,644,644,643,643,643,643,643,643,643,643,643,643,643,643,643,643,643,643,643,643,643,643,643,642,642,642,642,642,642,642,642,642,642,642,643,643,643,643,643,643,643,643,643,643,643,643,643,643,643,642,642,642,642,642,642,642,643,643,643,643,644,644,644,644,644,0,0,0,0,52134,60118,0,0,0,0,0,0,0,0,0,0,0,0,0,0,0,0,33208,30738,0,35539,46117,40004,36669,38952,33003,35528,37328,37213,35056,29058,25213,20701,18281,17121,16015,15231,14466,0,0,0,0,0,0,0,0,0,0,0,0,0,0,0,0,0,0,1651,1649,1638,1646,1647,1631,1640,1634,1623,1613,1608,1603,1597,1590,1573,1572,1574,1563,1550,1537,1525,1491,1472,1447,1436,1418,1407,1386,1375,1359,1350,1347,0,0,0,0,0,7053,7057,7244,0,0,0,0,31151,28254,32699,33047,32547,32384,31741,27289,0,0,9068,7865,8579,8671,8877,9008,0,0,0,0,0,0,14029,14612,15499,17118,17436,17816,19064,17787,22557,23012,24685,25246,25722,26072,26283,26349,26273,26079,25796,25492,25084,24594,24104,23602,23106,22614,22179,21784,21411,20979,20644,21124,0,0,0,5257,5225,5194,5157,5114,5069,5021,4970,4923,4870,4825,4779,4739,4700,4655,4623,4601,4600,4591,0,0,0,0,0,0,0,0,0,0,0,0,0,0,0,0,0,0,0,0,0,0,0,0,0,0,0,0,0,0,0,0,0,0,0,0,0,0,3276,3228,3222,3212,3202,3191,3181,3170,3159,3148,3136,3122,3106,3090,3074,3059,3045,3034,3024,3016,3011,3008
0,0,0,0,0,0,0,0,0,0,0,0,0,0,0,0,0,0,0,0,0,0,0,0,0,0,0,0,0,0,0,0,0,0,0,1036,1037,1038,1042,1042,1044,1046,1046,1055,1049,1050,1050,1054,0,0,0,0,0,0,0,0,0,0,0,0,0,1078,1078,1079,1079,1080,1081,1082,1083,1084,1086,1087,1089,1090,1091,1091,1090,1090,1089,1090,1090,1090,0,0,0,0,0,0,0,0,0,0,0,0,0,0,0,0,0,0,0,0,0,0,0,0,0,0,0,0,0,0,0,0,0,0,0,0,0,0,0,0,0,0,0,0,0,1163,0,0,0,0,0,0,0,0,0,0,0,0,0,0,0,0,0,0,0,0,0,0,0,0,0,0,0,0,0,0,0,0,0,0,0,0,0,0,0,0,0,0,0,0,0,0,0,1165,1164,1154,0,0,0,0,0,0,0,0,0,0,0,0,0,0,0,0,0,0,0,0,1129,1127,1134,1138,1139,1145,1149,1158,1165,1171,1181,0,0,0,0,0,0,0,0,0,0,0,0,0,0,0,0,0,0,0,0,0,0,0,0,0,0,0,0,0,0,0,24755,24599,24585,24061,0,0,0,0,0,0,0,0,0,0,0,0,0,0,0,0,0,0,0,0,0,0,0,1174,1177,1161,1157,1154,1151,1149,1149,1150,1146,1146,1147,1156,1155,1150,1147,1144,1141,0,0,1139,1142,0,1156,1175,1166,1170,1182,1182,1182,1181,1179,1183,1181,0,0,0,0,0,0,0,0,0,0,0,0,0,0,0,0,0,0,0,0,0,0,647,646,646,646,645,645,645,645,644,644,644,644,644,644,644,643,643,643,643,643,643,643,643,643,643,643,643,643,643,643,643,643,643,643,643,642,642,642,642,642,642,642,642,642,643,643,643,643,643,643,643,643,643,643,643,643,643,643,643,643,642,642,642,642,642,642,642,643,643,643,643,643,644,644,644,644,0,0,51233,56973,58561,58915,0,0,0,0,0,0,0,0,0,0,0,0,0,0,33054,30465,30802,30611,31685,34228,34754,37901,36754,37001,35206,39603,38508,37938,35848,32594,28686,23502,19445,18033,17206,16317,15068,15228,0,0,0,0,0,0,31037,0,0,0,0,0,0,0,0,0,0,0,0,0,0,0,0,0,0,0,0,1675,0,0,0,1580,1569,1572,1559,1547,1518,1509,1496,1480,1463,1454,1453,1450,1450,1435,1441,0,0,0,0,0,0,0,0,0,0,0,0,0,0,31057,28306,32213,32359,31727,31505,31049,27297,26575,0,0,8805,8813,8948,8992,9305,9665,9485,9828,10288,10914,11718,13265,13988,14772,14403,17880,18235,18711,19894,17653,23087,24113,24730,25228,25567,25754,25798,25716,25542,25305,25049,24731,24359,23969,23553,23123,22685,22272,21882,21510,21122,20811,20982,0,0,0,0,5215,5180,5138,5093,5046,4996,4945,4895,4844,4796,4749,4707,4668,4628,4596,4574,4558,4547,4533,0,0,4636,0,0,0,0,0,0,0,0,0,0,0,0,0,0,0,0,3616,3639,0,0,0,0,0,0,0,0,0,0,0,0,0,0,0,0,0,3231,3227,3216,3204,3193,3181,3170,3159,3148,3135,3121,3106,3090,3073,3058,3044,3031,3021,3013,3007,3005
0,0,0,0,0,0,0,0,0,0,0,0,0,0,0,0,0,0,0,0,0,0,0,0,0,0,0,0,0,0,0,0,0,0,0,1034,1034,1035,1040,1039,1040,1042,1044,1046,1046,1045,1044,1044,1046,0,0,0,0,1040,1040,1038,1037,1037,1042,1045,0,1065,1072,1073,1074,1075,1076,1077,1078,1079,1081,1082,1084,1086,1087,1088,1088,1088,1088,1089,1089,1090,1092,1097,0,0,0,0,0,0,0,0,0,0,0,0,0,0,0,0,0,0,0,0,0,0,0,0,0,0,0,0,0,0,0,0,0,0,0,0,0,0,0,0,0,0,0,1166,1161,1159,1158,1156,0,0,0,0,0,0,0,0,0,0,0,0,0,0,0,0,0,0,0,0,0,0,0,0,0,0,0,0,0,0,0,0,0,0,0,0,0,0,0,0,0,0,0,1159,1157,1158,1146,0,0,0,0,0,0,0,0,0,0,0,0,0,0,0,0,0,0,1121,1124,1124,1126,1130,1132,1136,1139,1150,1159,1166,0,0,0,0,0,0,0,0,0,0,0,0,0,0,0,0,0,0,0,0,0,0,0,0,0,0,0,0,0,0,0,0,24171,24063,23925,0,0,0,0,0,0,0,0,0,2955,2959,2979,2949,2921,0,0,0,0,0,0,0,0,0,1171,1172,1175,1157,1150,1147,1143,1142,1142,1143,1142,1143,1152,1151,1150,1146,1143,1140,1136,1133,1132,1133,1131,1133,1145,1150,1159,1164,1167,1178,1179,1178,1177,1174,0,0,0,0,0,0,0,0,0,0,0,0,0,0,0,0,0,0,0,0,0,0,0,0,647,646,646,645,645,645,645,645,644,644,644,644,644,644,644,644,644,644,643,643,643,643,643,643,643,643,643,643,643,643,643,643,643,643,643,643,642,642,642,642,643,643,643,643,643,643,643,643,643,643,643,643,643,643,643,643,643,643,643,643,642,642,642,642,642,643,643,643,643,643,643,644,644,644,644,644,0,49278,55464,52484,53045,52209,0,0,0,0,0,0,0,0,0,0,0,0,0,32742,30406,30424,31291,32303,34246,35159,35923,36590,37084,36341,38818,38824,36697,36032,30535,28030,24735,22351,20185,18678,17143,0,0,0,0,0,0,0,30301,30794,0,0,0,0,0,0,0,0,0,0,0,0,0,0,0,0,0,0,0,0,1683,1688,1675,1672,0,0,1557,1556,1530,1520,1511,1500,1488,1475,1467,1464,1460,1461,1462,1457,0,0,0,0,0,0,0,0,0,0,0,0,0,28003,30669,31414,31571,31566,30700,30376,29976,29060,26763,0,9441,8979,8798,8828,8920,9029,9309,9477,9797,10233,10825,11573,12728,13465,14166,14662,17322,17917,18645,19741,20875,17684,23469,24144,24688,25032,25209,25239,25152,24991,24788,24574,24329,24054,23759,23439,23097,22739,22385,22034,21686,21330,21028,20796,20958,0,0,0,5198,5166,5119,5071,5024,4973,4922,4871,4819,4769,4720,4675,4635,4596,4564,4540,4518,4512,4497,4479,4479,4600,4618,0,0,0,0,0,0,0,0,0,0,0,0,0,0,0,0,0,0,0,0,0,4116,0,0,0,0,0,0,0,0,0,0,0,0,3277,3232,3219,3206,3194,3181,3170,3158,3146,3134,3120,3105,3089,3073,3057,3043,3030,3019,3011,3005,3002
0,0,0,0,0,0,0,0,0,0,0,0,0,0,0,0,0,0,0,0,0,0,0,0,0,0,0,0,0,0,0,0,0,0,1029,1030,1030,1030,1031,1034,1036,1037,1039,1041,1041,1040,1040,1039,1037,0,0,0,0,1033,1033,1035,1036,1037,1040,1043,1048,1057,1066,1068,1069,1070,1071,1072,1073,1075,1077,1079,1081,1083,1084,1086,1087,1087,1088,1088,1089,1089,1091,1093,1099,1109,1114,0,0,0,0,0,0,0,0,0,0,0,0,0,0,0,0,0,0,0,0,0,0,0,0,0,0,0,0,0,0,0,0,0,0,0,0,0,0,0,0,1166,1161,1159,1158,0,0,0,0,0,0,0,0,0,0,0,0,0,0,0,0,0,0,0,0,0,0,0,0,0,0,0,0,0,0,0,0,0,0,0,0,0,0,0,0,0,0,0,0,1157,1158,1146,1143,0,0,0,0,0,0,0,0,0,0,0,0,0,0,0,1099,1105,1112,1116,1118,1120,1121,1123,1123,1126,1127,1107,1115,0,0,0,0,0,0,0,0,0,0,0,0,0,0,0,0,0,0,0,0,0,0,0,0,0,0,0,0,0,0,0,0,0,0,0,0,0,0,0,0,0,0,0,0,0,0,0,0,2949,0,0,0,0,0,0,0,0,0,0,1172,1171,1169,1167,1142,1138,1134,1132,1132,1134,1147,1147,1147,1147,1146,1142,1140,1140,1137,1135,1134,1132,1131,1134,1140,1146,1153,1156,1164,1168,1176,1176,1174,1170,0,0,0,0,0,0,0,0,0,0,0,0,0,0,0,0,0,0,0,0,0,655,0,648,647,646,646,646,645,645,645,645,644,644,644,644,644,644,644,644,644,644,644,643,643,643,643,643,643,643,643,643,643,643,643,643,643,643,643,643,643,643,643,643,643,643,643,643,643,643,643,643,643,643,643,643,643,643,643,643,643,643,643,643,643,643,643,643,643,643,643,643,643,643,643,644,644,644,644,644,0,60506,57115,54997,56086,58402,0,61900,0,0,0,0,0,0,0,0,0,0,0,32516,30370,30744,31323,32264,34082,35321,35926,36274,36783,36514,40196,41002,37348,38758,30354,27897,24711,22565,21143,0,0,0,0,0,0,0,0,0,30068,30586,31200,0,0,0,0,0,0,0,0,0,0,0,0,0,0,0,0,0,0,0,0,0,0,0,0,0,0,1554,1530,1522,1513,1504,1494,1482,1477,1471,1467,1466,1468,0,0,0,0,0,0,0,0,0,0,0,0,0,0,29390,29589,27915,30985,30845,30003,28751,28861,27965,0,0,9363,8943,8953,8962,8995,9083,9207,9036,9740,10157,10721,12825,12726,13098,13505,15308,15976,16436,15130,15537,16094,16805,22753,23498,24107,24471,24658,24694,24618,24474,24299,24118,23926,23719,23501,23263,23007,22734,22452,22158,21849,21522,21221,21254,21143,20010,0,0,0,5145,5101,5049,5003,4951,4900,4848,4795,4743,4691,4644,4601,4562,4529,4502,4479,4460,4444,4428,4421,4399,4488,0,0,0,0,0,0,0,0,0,0,0,0,0,0,0,0,0,0,0,0,0,4082,4082,4096,0,0,0,0,0,0,0,0,0,0,3270,3236,3222,3207,3193,3180,3167,3155,3144,3131,3118,3103,3087,3072,3056,3042,3029,3018,3009,3003,3000
0,0,0,0,0,0,0,0,0,0,0,0,0,0,0,0,0,0,0,0,0,0,0,0,0,0,0,0,0,0,0,0,0,0,1028,1028,1028,1028,1028,1030,1031,1032,1034,1035,1036,1035,1034,1033,1032,1028,0,1027,1029,1030,1032,1034,1036,1037,1039,1042,1046,1053,1061,1063,1065,1066,1067,1069,1070,1072,1073,1076,1078,1081,1083,1085,1086,1087,1087,1088,1088,1089,1090,1091,1096,1105,1107,0,0,0,0,0,0,0,0,0,0,0,0,0,0,0,0,0,0,0,0,0,0,0,0,0,0,0,0,0,0,0,0,0,0,0,0,0,0,0,0,0,1161,1159,1158,0,0,0,0,0,0,0,0,0,0,0,0,0,0,0,0,0,0,0,0,0,0,0,0,0,0,0,0,0,0,0,0,0,0,0,0,0,0,0,0,0,0,0,0,0,1146,1142,1139,0,0,0,0,0,0,0,0,0,0,1062,1064,1067,1073,1081,1094,1099,1107,1112,1114,1116,1116,1116,1115,1112,1111,1103,0,1078,1078,1077,0,0,0,0,0,0,21766,21753,21623,20603,0,0,0,0,0,0,0,0,0,0,0,0,0,0,0,0,0,0,0,0,0,0,0,0,0,0,0,0,0,0,0,0,3119,3116,2952,2935,0,0,0,0,0,0,0,0,0,0,1168,1166,1168,1165,1133,1129,1125,1122,1122,1124,1142,1139,1143,1143,1139,1141,1139,1137,1135,1132,1133,1131,1131,1132,1136,1141,1142,1155,1152,1160,1175,1171,1172,0,0,0,0,0,0,0,0,0,0,0,0,0,0,0,0,0,0,0,0,0,0,654,650,649,647,647,646,646,645,645,645,645,644,644,644,644,644,644,644,644,644,644,644,643,643,643,643,643,643,643,643,643,643,643,643,643,643,643,643,643,643,643,643,643,643,643,643,643,643,643,643,643,643,643,643,643,643,643,643,643,643,643,643,643,643,643,643,643,643,643,643,643,643,643,643,644,644,644,644,645,0,59927,55486,52983,53709,56744,0,61335,0,0,0,0,0,0,0,0,0,0,0,0,29906,29916,32006,33303,33285,36519,39723,39208,38528,38870,40063,40918,0,41122,32694,28479,24598,22888,21950,0,0,0,0,0,0,0,0,29187,29840,30307,0,0,1052,1051,1051,1050,1051,1051,1051,1052,1051,1052,1060,1056,0,0,0,0,0,0,0,0,0,0,0,0,1548,1538,1530,1522,1515,1507,1499,1487,1483,1474,1471,1470,0,0,0,0,0,0,0,0,0,0,0,0,0,0,0,0,29368,27872,30296,28662,28122,27596,33597,34115,9847,9984,9245,9099,9021,9013,9042,9123,9294,9022,9164,10064,12027,12544,13092,13579,14078,15138,15813,14448,14716,15044,15507,16062,22017,22828,23514,23901,24112,24176,24129,24015,23870,23717,23560,23397,23228,23048,22857,22653,22436,22198,21929,21629,21327,21104,20899,20763,19792,0,0,0,5082,5029,4985,4930,4879,4826,4773,4719,4663,4614,4569,4528,4493,4463,4437,4416,4397,4378,4365,4344,4372,4268,0,0,0,0,0,0,0,0,4319,4327,0,0,4163,0,0,0,0,0,0,0,4108,4098,4073,4083,4062,4049,4044,0,0,0,0,0,3248,3235,3240,3223,3207,3192,3177,3164,3152,3140,3127,3114,3101,3086,3071,3056,3042,3029,3018,3010,3004,3000
