0,0,0,0,0,0,0,22537,22139,21681,21229,20613,20069,19621,19282,18586,17662,17484,17218,16842,16363,16257,15812,15854,15722,14959,13888,12763,11640,10584,9810,9493,9264,9112,9022,8983,8984,9018,9078,9159,9255,9362,9474,9589,9709,9834,9965,10098,10227,10348,10457,10557,10655,10756,10864,10979,11162,11305,0,0,0,0,0,0,0,0,0,0,0,0,0,0,0,0,45407,43884,0,42264,36985,38939,37292,35003,33013,31750,31060,30894,31251,31964,32856,33734,34337,0,0,0,0,0,0,0,0,0,0,0,0,0,0,0,0,0,0,0,0,0,0,0,0,0,0,0,0,0,0,0,0,0,0,0,0,0,0,0,0,0,0,0,0,0,0,0,0,0,0,0,0,0,0,0,0,0,0,0,0,0,0,0,0,0,0,0,0,0,0,8241,8191,8175,8132,8094,8061,8026,7980,7916,7840,7754,7611,7485,7376,7260,7171,7098,7043,6999,6970,6963,6963,6979,6985,6984,6974,6943,6916,6883,6844,6810,6782,0,0,0,0,2577,2586,2601,2617,2643,2666,2676,2673,2665,2644,2620,2591,2565,2537,2508,2489,2467,2458,2455,2458,2467,2481,2498,2515,2530,2538,0,2555,2598,2700,2723,2767,2815,2853,2886,2915,2938,2960,2981,0,4682,4692,4703,4725,4748,4767,4782,4790,4792,4789,4785,4783,4784,4790,4806,4821,10608,10313,9684,7964,7818,6696,6392,6146,5926,5687,5616,5568,5564,5583,5598,5622,0,0,0,0,0,0,0,0,0,0,0,3163,0,0,0,0,0,0,0,0,0,0,0,0,0,0,0,0,0,0,0,0,0,0,0,0,0,0,0,0,0,0,0,0,0,0,0,0,0,0,0,0,0,0,0,0,0,645,644,644,643,643,643,643,643,643,643,643,643,644,644,644,644,644,644,644,644,644,643,643,643,643,643,643,643,643,643,644,644,644,644,644,644,644,644,644,644,644,644,643,643,643,643,643,643,643,642,642,642,642,643,643,643,644,644,645,645,645,645,644,644,644,644,644,643,643,643,643,643,643,0,0,0,0,0,0,0,0,0,0,0,0,0,0,0,0,0,0,0,0,0,0,0,0,0,0,0,0,0,0,0,0,0,0,0,0,0,0,0,0,0,0,0,0,0,65528,65522,65509,65481,65438,65360,65220,64974,64549,63840,62706,61007,58637,55572,51944,48016,43994,39982,36087,32458,29157,26227,23606,21246,19039,16791,14970,13710,12285,11402,10657,10089,9648,9303,9038,8827,8654,8503,8365,8235,8113,7999,7895,7808,7734,7665,7607,7553,7500,7439,7367,7284,7193,7103,7019,6941,6881,6836,6794,6763,6733,6715,6696,6674,6663,64969,64512,64439,63642,62346,60351,57557,53755,43741,38808,32938,30001,26209,25470,24997,24174,24384,23489,25968,27750,29961,31683,32751,33182,31064,8606,29175,31058,31744,32546,32464,32166,31680,30837,29914,29195,28235,27128,26097,24764,23548,22225,20581,19106,17591,16337,15262,14379,13965,13706,13602,13662,13918,15229,15596,15820,15912,15901,15823,15682,15492,15268,15029,14790,14554,14319,14081,13841,13611,13420,13280,13188,13132,13083,13012,12899,12735,12507,12212,11872,11543,11195,10843,10546,10290,10065,9892,9764,9678,9624,9596,9582,9573,9557,9523,9462,9369,9240,9082,8903,8721,8548,8392,8258,8142,8035,7946,7866,7792,7721,7646,7567,7484,7402,7327,7260,7203,7154,7097,7064,7015,6971,6886,6817,6778,6785,6769,6714,6708,6705,6640
0,0,0,0,0,0,0,22146,21705,21270,20825,21100,19551,19135,18925,18213,18144,18050,18497,18730,15275,15094,14937,16902,16277,15493,14480,13388,12282,11239,10092,9692,9407,9217,9100,9040,9025,9045,9094,9165,9253,9354,9463,9576,9696,9824,9959,10099,10237,10366,10483,10589,10688,10786,10884,10981,11070,10782,0,0,0,0,0,0,0,0,0,0,0,0,0,0,0,0,46818,46465,44880,0,39643,36351,35182,33194,32073,30950,30362,30255,30629,31341,32224,33116,33724,0,0,0,0,0,0,0,0,0,0,0,0,0,0,0,0,0,0,0,0,0,0,0,0,0,0,0,0,0,0,0,0,0,0,0,0,0,0,0,0,0,0,0,0,0,0,0,0,0,0,0,0,0,0,0,0,0,0,0,0,0,0,0,0,0,0,0,0,0,0,0,0,0,0,0,0,0,0,0,7848,7782,0,7476,7383,0,0,0,0,6949,6958,6954,6955,0,2538,2537,2534,2531,2528,2523,0,0,0,0,0,2520,2524,2552,2567,2582,2594,2615,2632,2639,2639,2628,2609,2585,2558,2535,2508,2479,2455,2424,2412,2407,2408,2416,2428,2444,2461,2476,2487,2464,2503,2549,2624,2675,2717,2762,2805,2843,2877,2905,2934,2967,0,4678,4688,4701,4721,4743,4762,4777,4785,4787,4785,4782,4782,4785,4795,4814,4836,4884,0,7287,7671,7007,6396,6199,6042,5865,5687,5617,5571,5561,5577,5590,0,0,0,0,0,0,0,0,0,0,0,0,0,0,0,0,0,0,0,0,0,0,0,0,0,0,0,0,0,0,0,0,0,0,0,0,0,0,0,0,0,0,0,0,0,0,0,0,0,0,0,0,0,0,0,0,0,0,645,644,644,644,643,643,643,643,643,643,643,643,643,644,644,644,644,644,644,643,643,643,643,642,642,642,643,643,643,643,643,644,644,644,644,644,643,643,643,643,643,643,643,643,643,643,643,642,642,642,642,642,642,642,643,643,643,644,644,644,644,644,644,644,643,643,643,643,643,643,643,643,643,643,0,0,0,0,0,0,0,0,0,0,0,0,0,0,0,0,0,0,0,0,0,0,0,0,0,0,0,0,0,0,0,0,0,0,0,0,0,0,0,0,0,0,0,0,0,0,65511,65490,65455,65389,65270,65060,64694,64073,63059,61491,59216,56154,52409,48293,44093,39951,35993,32360,29112,26256,23726,21451,19357,17341,15643,14345,12867,11576,10777,10173,9706,9343,9062,8840,8656,8498,8353,8219,8094,7979,7876,7788,7713,7646,7588,7533,7477,7415,7343,7261,7170,7078,6994,6918,6858,6813,6775,6747,6723,6706,6688,6669,6656,6642,6644,0,0,0,0,0,50506,0,0,29952,25416,24935,24316,23986,22732,22299,21971,24589,26403,26668,0,0,8482,8453,8460,8320,8248,8175,8107,8047,7999,7965,29040,29519,28837,27770,26505,25459,23952,22742,21422,19587,18093,16473,15191,14072,13096,12758,12551,12481,12563,12857,14931,15395,15669,15798,15809,15742,15607,15421,15203,14970,14740,14513,14285,14051,13814,13587,13402,13269,13184,13137,13096,13030,12919,12756,12519,12202,11831,11502,11142,10766,10474,10226,10001,9837,9719,9643,9596,9572,9560,9552,9535,9502,9444,9355,9234,9086,8916,8742,8574,8420,8288,8172,8067,7975,7891,7811,7730,7645,7555,7463,7374,7294,7226,7168,7119,7066,7024,6973,6916,6848,6788,6749,6777,6764,6756,6754,6754,6628
0,0,0,0,0,0,21159,21653,21865,21451,21026,20676,20222,18807,18803,17984,19259,19191,19231,19010,18989,15459,15320,17454,17787,14293,13593,14054,12966,11459,10266,9808,9491,9278,9144,9071,9045,9055,9096,9159,9242,9338,9444,9557,9678,9808,9949,10096,10245,10385,10514,10630,10737,10839,10937,11030,11045,11452,0,0,0,0,0,0,0,0,0,0,0,0,0,0,0,0,45378,44200,42503,0,36390,34101,33695,31814,30873,29954,29510,29501,29925,30658,31545,32488,33146,0,0,0,0,0,0,0,0,0,0,0,0,0,0,0,0,0,0,0,0,0,0,0,0,0,0,0,0,0,0,0,0,0,0,0,0,0,0,0,0,0,0,0,0,0,0,0,0,0,0,0,0,0,0,0,0,0,0,0,0,0,0,0,0,0,0,0,0,0,0,0,0,0,0,0,0,0,0,0,0,2347,2352,2380,2380,0,0,0,0,0,0,0,2524,2529,2530,2530,2527,2523,2519,2511,2500,2493,2486,2481,2482,2495,2505,2528,2542,2555,2561,2574,2587,2598,2598,2587,2565,2543,2517,2500,2475,2448,2420,2377,2365,2359,2359,2366,2378,2394,2412,2429,2444,2442,2473,2511,2542,2595,2666,2706,2752,2794,2830,2861,2900,2952,0,4673,4683,4697,4716,4736,4755,4770,4778,4780,4779,4777,4778,4784,4797,4819,4849,4910,5069,5296,5527,5783,6057,5976,5924,5796,5666,5607,5567,5555,0,0,0,0,3182,3178,3179,3183,0,0,0,0,0,0,0,0,0,0,0,0,0,0,0,0,0,0,0,0,0,0,0,0,0,0,0,0,0,0,0,0,0,0,0,0,0,0,0,0,0,0,0,0,0,0,0,0,0,0,0,0,645,644,644,644,643,643,643,643,643,643,643,643,643,643,643,643,643,643,643,643,643,643,642,642,642,642,642,643,643,643,643,643,643,643,643,643,643,643,643,643,643,643,643,643,643,642,642,642,642,642,642,642,642,642,642,643,643,644,644,644,644,644,643,643,643,643,643,642,642,642,642,642,642,642,0,0,0,0,0,0,0,0,0,0,0,0,0,0,0,0,0,0,0,0,0,0,0,0,0,0,0,0,0,0,0,0,0,0,0,0,0,0,0,0,0,0,0,0,0,0,0,65495,65464,65405,65298,65107,64772,64198,63245,61738,59494,56393,52529,48276,43988,39826,35902,32326,29143,26337,23845,21578,19511,17604,15955,14587,13340,11818,10931,10283,9787,9404,9106,8872,8680,8516,8370,8237,8114,8001,7898,7808,7730,7659,7595,7534,7473,7407,7333,7248,7157,7063,6977,6901,6841,6795,6760,6734,6714,6699,6683,6666,6652,6640,6644,6660,0,6927,6991,0,0,0,0,0,0,26489,23812,13152,12874,12676,13500,13170,12531,8537,8390,8356,8353,8312,8283,8179,8111,8046,7984,7931,7886,7847,7731,7684,7655,26729,26028,25008,23239,22096,20839,18702,17242,15481,14172,12979,11819,11561,11395,11335,11391,11602,0,0,0,0,0,0,0,0,0,0,0,0,0,0,0,0,4075,4043,4020,4007,3979,3956,0,12848,12341,12173,11772,11463,11066,10690,10413,10177,9939,9779,9666,9597,9553,9530,9517,9505,9485,9450,9394,9309,9194,9060,8901,8738,8578,8428,8298,8182,8076,7981,7892,7805,7717,7625,7529,7432,7340,7258,7188,7130,7079,7027,6979,6924,6865,6782,6746,6770,6750,6738,6732,6731,6228,6225
0,0,0,0,0,0,21874,21684,21344,20882,20419,20016,19610,18276,19074,18693,18861,18877,18949,18859,18854,19206,19028,17765,17937,17527,16621,14780,13794,11959,10270,9817,9504,9290,9154,9078,9047,9054,9090,9149,9228,9321,9426,9538,9660,9793,9938,10093,10251,10403,10544,10673,10792,10905,11014,11118,11052,10926,0,0,0,0,0,0,0,0,0,0,0,0,0,0,0,43212,42509,40289,37040,34671,31399,30806,31268,30286,29344,28804,28548,28671,29181,29959,30864,31917,32691,0,0,0,0,0,0,0,0,0,0,0,0,0,0,0,0,0,0,0,0,0,0,0,0,0,0,0,0,0,0,0,0,0,0,0,0,0,0,0,0,0,0,0,0,0,0,0,0,0,0,0,0,0,0,0,0,0,0,0,0,0,0,0,0,0,0,0,0,0,0,0,0,0,0,0,2287,2293,2301,2309,2318,2333,2349,2369,2375,2385,2394,0,0,2477,2492,2500,2513,2519,2520,2520,2516,2512,2508,2499,2488,2480,2471,2467,2466,2472,2479,2501,2512,2523,2519,2529,2538,2552,2550,2540,2514,2493,2469,2463,2445,2268,2324,2330,2320,2315,2315,2322,2333,2350,2369,2389,2407,2417,2445,2477,2508,2550,2598,2650,2698,2740,2777,2808,2859,2923,4628,4668,4678,4692,4710,4729,4748,4761,4769,4772,4771,4770,4771,4776,4787,4806,4834,4897,5034,5134,5357,5586,5753,5786,5849,5749,5648,5594,0,3495,3452,3417,0,3225,3198,3191,3190,3197,3221,0,0,0,0,0,0,0,0,0,0,0,0,0,0,0,0,0,0,0,0,0,0,0,0,0,0,0,0,0,0,0,0,0,0,0,0,0,0,0,0,0,0,0,0,0,0,0,0,0,0,0,644,644,644,644,643,643,643,643,643,643,643,643,643,643,643,643,643,643,643,643,642,642,642,642,642,642,642,643,643,643,643,643,643,643,643,643,643,643,643,643,643,643,642,642,642,642,642,642,642,642,642,642,642,642,642,643,643,643,643,643,643,643,643,643,643,642,642,642,642,642,642,642,642,642,0,0,0,0,0,0,0,0,0,0,0,0,0,0,0,0,0,0,0,0,0,0,0,0,0,0,0,0,0,0,0,0,0,0,0,0,0,0,0,0,0,0,0,0,0,0,0,65497,65467,65411,65308,65124,64799,64238,63298,61792,59513,56325,52327,47968,43662,39574,35773,32315,29213,26437,23931,21594,19480,17625,16029,14668,13455,12022,11027,10381,9878,9484,9175,8931,8732,8565,8421,8293,8175,8066,7966,7874,7790,7712,7640,7570,7499,7425,7344,7256,7161,7062,6971,6893,6831,6784,6749,6726,6708,6694,6680,6664,6651,6641,6646,6665,6723,6783,6856,6912,6961,6992,7003,0,0,0,0,7331,8619,8871,8458,8443,8275,8242,8222,8196,8170,8121,8073,7988,7925,7867,7816,7774,7740,7709,7641,7604,7581,7546,7554,7581,22764,21798,20712,11861,15752,13619,9347,10399,10620,10461,10345,10310,10372,10474,0,0,0,4591,4512,4482,4485,0,4299,0,0,0,0,4168,4132,4090,4056,4039,4022,4006,3987,3969,3947,3932,0,0,11663,11288,10847,10639,10365,10143,9885,9720,9608,9544,9500,9476,9456,9438,9409,9368,9309,9226,9118,8999,8852,8703,8553,8405,8278,8161,8052,7954,7859,7767,7674,7579,7483,7386,7295,7213,7144,7085,7032,6978,6924,6865,6796,6730,6671,6618,6704,6691,6685,6175,6168,6387
0,0,0,0,0,21178,20943,20573,20094,19552,19035,18592,18211,17850,17775,17887,18328,18420,18489,18401,18401,18414,18160,17923,17772,17285,16638,15186,12069,10777,10205,9762,9469,9268,9140,9069,9041,9048,9083,9141,9219,9311,9415,9528,9652,9787,9936,10096,10261,10422,10574,10716,10850,10981,11113,11251,11455,11736,0,0,27384,0,0,0,0,0,0,0,0,0,0,0,40047,39816,36593,35371,33890,30868,29884,29073,28935,28493,28013,27672,27595,27848,28451,29277,30193,31437,32427,0,0,0,0,0,0,0,0,0,0,0,0,0,0,0,0,0,0,0,0,0,0,0,0,0,0,0,0,0,0,0,0,0,0,0,0,0,0,0,0,0,0,0,0,0,0,0,0,0,0,0,0,0,0,0,0,0,0,0,0,0,0,0,2247,0,0,0,0,2269,2269,2255,2256,2240,2241,2235,2237,2251,2264,2285,2302,2321,2339,2358,2368,2381,2393,2409,2424,2449,2483,2488,2500,2506,2507,2506,2503,2498,2493,2483,2473,2464,2454,2447,2443,2446,2447,2475,2483,2490,2472,2478,2484,2504,2502,2491,2459,2439,2418,2425,2253,2306,2295,2293,2283,2278,2278,2284,2296,2312,2332,2354,2375,2392,2419,2448,2477,2514,2555,2601,2648,2687,2722,2751,2770,0,0,4666,4674,4688,4704,4723,4740,4753,4760,4762,4761,4759,4759,4761,4766,4773,4786,4846,4964,5014,5288,5450,5566,5426,0,3647,3586,3556,3517,3475,3434,3387,3317,3245,3216,3204,3201,3211,3238,0,0,0,0,0,0,0,0,0,0,0,0,0,0,0,0,0,0,0,0,0,0,0,0,0,0,0,0,0,0,0,0,0,0,0,0,0,0,0,0,0,0,0,0,0,0,0,0,0,643,644,644,644,644,644,643,643,643,643,643,643,643,643,643,643,643,643,643,643,643,642,642,642,642,642,642,642,642,642,643,643,643,643,643,643,643,643,643,643,643,643,643,642,642,642,642,642,642,642,642,642,642,642,642,642,642,643,643,643,643,643,643,643,643,643,642,642,642,642,642,642,642,642,642,642,0,0,0,0,0,0,0,0,0,0,0,0,0,0,0,0,0,0,0,0,0,0,0,0,3003,2995,0,0,0,0,0,0,0,0,0,0,0,0,0,0,0,0,0,0,0,65522,65511,65498,65468,65412,65309,65125,64799,64234,63282,61745,59404,56110,51981,47534,43241,39267,35636,32333,29326,26565,24005,21508,19266,17408,15849,14514,13331,12150,11175,10519,10006,9601,9279,9024,8817,8647,8505,8383,8273,8170,8073,7981,7893,7807,7724,7643,7559,7475,7385,7289,7187,7078,6981,6898,6831,6781,6745,6721,6704,6690,6677,6662,6649,6640,6643,6661,6704,6754,6807,6856,6899,6928,6944,6902,6930,7012,0,7495,7397,7494,7795,7941,7953,7964,7975,7969,7935,7886,7831,7757,7698,7648,7608,7580,7560,7543,7511,7486,7476,7468,7493,7541,7667,7880,7828,9264,8683,8921,9264,9565,9643,9544,9462,9462,9562,9741,0,0,0,4570,4528,4489,4444,4386,4341,4308,4270,4233,4199,4166,4121,4093,4067,4047,4027,4008,3988,3968,3946,3927,3901,3886,3886,3862,3863,3866,3838,0,9853,9670,9551,9491,9444,9414,9385,9357,9315,9264,9200,9115,9009,8907,8770,8634,8494,8344,8220,8101,7989,7888,7788,7693,7598,7506,7414,7322,7235,7157,7088,7028,6973,6918,6862,6801,6734,6670,6615,6567,6532,6626,6122,6108,6100,6332
0,0,0,0,0,21100,20788,20353,19825,19252,18701,18215,17809,17384,17277,17787,17719,17814,17869,17638,17878,17517,17445,17468,17277,16848,16354,13649,11844,10363,10021,9676,9411,9230,9117,9055,9033,9044,9082,9142,9220,9314,9419,9533,9659,9797,9949,10112,10282,10450,10611,10764,10913,11063,11223,11400,11635,11912,11344,11245,24492,20083,0,48014,51583,48855,0,45140,44280,43114,42248,40738,39318,36242,33152,31534,30083,28809,28178,27783,27650,27268,26925,26724,26776,27119,27786,28622,29494,31039,33077,0,0,0,0,0,0,0,0,0,0,0,0,0,0,0,0,0,0,0,0,0,0,0,0,0,0,0,0,0,0,0,0,0,0,0,0,0,0,0,0,0,0,0,0,0,0,0,0,0,0,0,0,0,0,0,0,0,0,0,0,0,2176,2209,2218,2193,2200,2205,2209,2216,2223,2216,2200,2200,2202,2209,2222,2232,2247,2266,2288,2308,2328,2346,2359,2374,2389,2403,2417,2439,2474,2477,2486,2492,2493,2491,2487,2481,2478,2464,2454,2444,2433,2425,2419,2417,2414,2422,2423,2425,2422,2426,2429,2461,2459,2448,2403,2385,2365,2319,2296,2283,2271,2264,2255,2250,2250,2255,2265,2281,2302,2324,2348,2369,2395,2423,2451,2483,2519,2559,2606,2640,2673,2701,2703,2679,0,4641,4672,4685,4700,4718,4735,4746,4752,4753,4751,4747,4743,4740,4735,4724,4712,4708,4743,4779,5052,4450,5319,5302,3644,3609,3567,3535,3497,3455,3412,3365,3307,3250,3220,3205,3202,3217,3257,3315,0,0,0,0,0,0,0,0,0,0,0,0,0,0,0,0,0,0,0,0,0,0,0,0,0,0,0,0,0,0,0,0,0,0,0,0,0,0,0,0,0,0,0,0,0,0,643,643,644,644,644,644,644,644,643,643,643,643,643,643,643,643,643,643,643,643,643,643,642,642,642,642,642,642,642,642,642,642,642,642,643,643,643,643,643,643,643,643,643,643,642,642,642,642,642,642,642,642,642,642,642,642,642,642,642,642,643,643,643,643,643,643,643,642,642,642,642,642,642,642,642,642,642,642,643,0,0,0,0,0,0,0,0,0,0,0,0,0,0,0,0,0,0,0,0,3085,3055,3029,2996,2979,2959,2950,0,0,0,0,0,0,0,0,0,0,0,0,0,0,0,0,0,65523,65511,65498,65468,65413,65311,65127,64801,64234,63277,61724,59344,55982,51755,47228,42930,39049,35574,32430,29526,26782,24164,21425,18983,17102,15592,14318,13208,12164,11293,10655,10146,9738,9407,9143,8928,8753,8611,8493,8389,8293,8201,8110,8021,7930,7839,7746,7650,7553,7453,7347,7237,7113,7005,6915,6842,6786,6746,6720,6702,6688,6675,6661,6648,6638,6638,6650,6680,6717,6757,6797,6831,6855,6868,6839,6832,6837,6863,6934,7036,7239,7449,7582,7625,7662,7699,7713,7673,7627,7569,7502,7446,7402,7369,7352,7345,7341,7337,7322,7323,7332,7370,7432,7550,7696,7840,8007,8261,8523,8724,8870,8877,8798,8735,8785,8958,9277,0,0,4713,4607,4558,4509,4458,4403,4357,4319,4281,4244,4207,4173,4136,4107,4080,4056,4034,4013,3992,3970,3947,3927,3903,3887,3872,3863,3862,3863,3864,3861,3863,0,9463,9450,9392,9355,9314,9273,9214,9152,9082,8991,8884,8804,8670,8546,8412,8253,8129,8006,7889,7786,7683,7587,7495,7409,7326,7242,7162,7088,7020,6960,6905,6849,6791,6730,6666,6605,6552,6507,6474,6451,6436,6430,6443,6406
0,0,0,0,0,20860,20667,20200,19650,19059,18478,17947,17432,17024,17310,17271,16907,16931,17197,16960,16936,16764,16682,16758,16529,16124,15824,14566,12893,10289,9864,9563,9337,9184,9090,9041,9029,9047,9089,9152,9233,9329,9436,9553,9681,9822,9977,10145,10318,10492,10660,10825,10989,11160,11345,11558,11823,12137,11490,20455,20242,21093,0,24744,50675,43467,41646,43007,42947,42078,40544,39050,35425,33112,31472,30156,29007,28131,27582,27098,26833,26479,26208,26074,26190,26559,27245,28034,28801,0,0,0,0,0,0,0,0,0,0,0,0,0,0,0,0,0,0,0,0,0,0,0,0,0,0,0,0,0,0,0,0,0,0,0,0,0,0,0,0,0,0,0,0,0,0,0,0,0,0,0,0,0,0,0,0,0,0,0,0,0,0,0,2188,2218,2210,2209,2187,2190,2192,2198,2193,2188,2187,2187,2190,2196,2206,2217,2232,2250,2273,2294,2316,2335,2349,2366,2375,2385,2395,2405,2414,2454,2463,2469,2477,2474,2469,2462,2463,2445,2435,2425,2413,2403,2395,2386,2383,2364,2359,2358,2377,2377,2377,2349,2343,2337,2352,2339,2323,2294,2276,2263,2252,2243,2234,2229,2228,2232,2242,2257,2276,2299,2324,2347,2374,2401,2428,2457,2488,2522,2562,2599,2630,2662,2676,2668,2664,2657,0,4685,4699,4715,4732,4741,4745,4745,4741,4736,4729,4718,4702,4670,4630,4571,4514,4452,4340,4302,4346,3739,3637,3579,3538,3504,3467,3427,3385,3339,3288,3239,3208,3189,3183,3202,3262,3311,0,0,2832,2844,0,0,0,0,0,0,0,0,0,0,0,0,0,0,0,0,0,0,0,0,0,0,0,0,0,0,0,0,0,0,0,0,0,0,0,0,0,0,0,0,0,0,644,644,644,644,644,644,644,644,643,643,643,643,643,643,643,643,643,643,643,643,643,642,642,642,642,642,642,642,642,642,642,642,642,642,642,642,642,643,643,643,643,643,643,642,642,642,642,642,642,642,642,642,642,642,642,642,642,642,642,642,643,643,643,643,643,643,643,642,642,642,642,642,642,642,642,642,642,643,0,0,0,0,0,0,0,0,0,0,0,0,0,0,0,0,0,0,0,3096,3080,3053,3025,3000,2978,2959,2941,2931,2915,0,0,0,0,0,0,0,0,0,0,0,0,0,0,0,0,65523,65512,65500,65471,65417,65318,65140,64822,64270,63332,61803,59445,56088,51828,47232,42890,39042,35671,32658,29857,27155,24517,21251,18702,16798,15350,14151,13123,12192,11405,10793,10294,9885,9546,9273,9049,8868,8722,8603,8500,8408,9310,9245,9141,8999,8824,7859,7752,7647,7536,7421,7301,7157,7038,6939,6859,6797,6752,6722,6702,6688,6675,6661,6648,6637,6633,6638,6655,6678,6704,6731,6755,6773,6784,6771,6769,6775,6795,6845,6919,7050,7181,7279,7327,7374,7429,7461,7409,7367,7312,7250,7195,7152,7122,7108,7108,7109,7124,7109,7116,7134,7177,7242,7350,7475,7607,7774,7956,8123,8229,8291,8254,8181,8132,8258,8550,8872,0,4804,4736,4655,4597,4540,4484,4428,4380,4338,4298,4259,4223,4188,4152,4122,4093,4068,4044,4021,3998,3975,3952,3930,3907,3889,3874,3864,3859,3857,3855,3851,3847,3838,0,9430,9355,9300,9251,9199,9121,9048,8974,8876,8761,8711,8572,8458,8326,8143,8020,7890,7768,7668,7562,7468,7380,7302,7231,7157,7084,7014,6949,6889,6832,6776,6718,6658,6596,6538,6487,6444,6410,6385,6368,6359,6384,6349
0,0,0,0,0,20799,20564,20095,19550,18957,18354,17779,17274,16801,16966,16844,16374,16783,16780,16735,16228,16074,15951,15802,15548,15264,15253,14142,11238,9987,9671,9432,9253,9134,9063,9030,9029,9054,9102,9169,9253,9352,9462,9582,9713,9858,10018,10190,10370,10553,10733,10915,11100,11298,11517,11772,12083,12448,11792,12057,19675,21516,22405,23021,0,39688,39003,41547,41671,39926,39392,37246,33779,32708,31339,30188,29155,28158,27529,26929,26567,26185,25915,25771,25887,26221,26916,27640,28467,0,0,0,0,0,0,0,0,0,0,0,0,0,0,0,0,0,0,0,0,0,0,0,0,0,0,0,0,0,0,0,0,0,0,0,0,0,0,0,0,0,0,0,0,2261,2282,2283,2285,2297,0,0,0,0,0,0,0,0,0,0,0,0,0,0,2225,2221,2207,2207,2208,2206,2177,2185,2180,2176,2174,2174,2176,2182,2191,2203,2217,2235,2259,2281,2308,2325,2339,2357,2368,2377,2384,2392,2400,2412,2447,2453,2461,2458,2451,2444,2446,2427,2418,2408,2395,2384,2376,2365,2359,2345,2338,2334,2341,2339,2336,2320,2315,2309,2315,2305,2294,2274,2261,2249,2238,2228,2219,2214,2212,2215,2224,2237,2256,2278,2303,2328,2355,2381,2407,2435,2463,2493,2523,2560,2590,2629,2654,2658,2659,2654,2652,2654,2654,2653,4733,4740,4741,4739,4735,4728,4719,4704,4680,4626,4564,4503,4448,4358,3686,3651,3678,3623,3579,3531,3494,3460,3426,3389,3349,3305,3258,3212,3178,3154,3140,3163,3257,0,0,2777,2796,2797,2789,2784,2775,2764,2751,2729,0,0,0,0,0,0,0,0,0,0,0,0,0,0,0,0,0,0,0,0,0,0,0,0,0,0,0,0,0,0,0,0,0,0,0,0,0,644,644,644,645,644,644,644,643,643,643,643,643,643,643,643,643,643,643,643,643,642,642,642,642,642,642,642,642,642,642,642,642,642,642,642,642,642,642,643,643,643,642,642,642,642,642,642,642,642,642,642,642,643,643,643,642,642,642,642,642,643,643,643,643,643,642,642,642,642,642,642,642,642,642,642,642,642,0,0,0,0,0,0,0,0,0,0,0,0,0,0,0,0,0,3174,3123,3091,3068,3032,3003,2976,2953,2933,2917,2907,2895,2880,0,0,0,0,0,0,0,0,0,0,0,0,0,0,0,65523,65518,65502,65475,65424,65332,65164,64866,64343,63453,61992,59719,56445,52225,47577,43148,39254,35907,32960,30227,27560,24914,21156,18573,16594,15202,14068,13107,12254,11524,10931,10439,10027,9677,9394,9159,8967,8813,8688,8582,9526,9506,9452,9359,9225,9053,8848,7841,7729,7612,7492,7368,7195,7065,6961,6875,6808,6759,6725,6703,6688,6675,6662,6650,6639,6631,6629,6634,6643,6656,6670,6683,6693,6700,6694,6694,6699,6714,6748,6799,6881,6967,7034,7079,7120,7149,7240,7166,7130,7080,7023,6970,6928,6895,6878,6871,6870,6896,6864,6868,6884,6925,6985,7084,7188,7305,7482,7622,7731,7776,7797,7732,6956,6812,7896,6510,0,0,0,4778,4704,4641,4579,4519,4460,4409,4363,4319,4279,4241,4204,4169,4138,4108,4081,4056,4032,4008,3984,3959,3936,3913,3893,3876,3864,3856,3850,3845,3839,3833,3825,3814,3811,3791,9231,9158,9100,9036,8966,8890,8783,8653,8337,8135,8019,7907,8028,7910,7773,7647,7555,7448,7357,7272,7205,7146,7082,7016,6951,6888,6828,6771,6713,6655,6596,6535,6477,6427,6384,6348,6320,6300,6287,5940,6352
0,0,0,0,0,20743,20468,20018,19501,18922,18308,17694,17138,16609,16713,16520,17916,17825,17674,17439,17131,15506,15302,15053,14753,14394,15054,0,10217,9743,9500,9312,9175,9085,9036,9019,9029,9062,9116,9187,9275,9375,9488,9611,9746,9896,10062,10244,10436,10635,10839,11048,11268,11507,11776,12091,12476,12927,12291,12608,19626,21391,22616,24924,0,30898,37584,39836,40189,40547,39025,36723,34788,33997,32505,31214,30091,28921,28167,27350,26861,26373,26025,25785,25845,26099,26937,27594,28671,0,0,0,0,0,0,0,0,0,0,0,0,0,0,0,0,0,0,0,0,0,0,0,0,0,0,0,0,0,0,0,0,0,0,0,0,0,0,0,0,0,0,0,2249,2237,2241,2243,2290,2292,0,0,0,0,0,0,0,0,0,0,0,0,2313,2307,2240,2229,2210,2206,2202,2198,2186,2176,2170,2164,2162,2161,2163,2168,2177,2189,2204,2221,2247,2270,2297,2318,2331,2342,2360,2368,2374,2380,2386,2395,2400,2378,2375,2441,2406,2428,2415,2414,2406,2396,2381,2369,2360,2347,2339,2327,2319,2313,2314,2310,2306,2296,2291,2287,2289,2282,2274,2261,2250,2239,2229,2219,2210,2204,2202,2204,2211,2224,2241,2262,2286,2311,2337,2363,2389,2414,2440,2466,2492,2522,2551,2600,2639,2650,2656,2653,2653,2656,2655,2659,2664,2664,4740,4737,4732,4725,4717,4700,4673,4600,4517,4462,4381,4347,3741,3715,3569,3532,3498,3461,3431,3403,3373,3340,3303,3260,3214,3169,3131,3100,3076,3038,2853,2804,2791,2785,2792,2792,2787,2781,2771,2758,2739,2719,0,0,0,0,0,0,0,0,0,0,0,0,0,0,0,0,0,0,0,0,0,0,0,0,0,0,0,0,0,0,0,0,0,0,0,0,0,0,644,645,645,645,644,644,643,643,643,643,643,643,643,643,643,643,643,643,643,642,642,642,642,642,642,642,642,642,642,642,642,642,642,642,642,642,642,642,642,642,642,642,642,642,642,642,642,642,642,643,643,643,643,642,642,642,642,642,642,642,643,643,643,642,642,642,642,642,642,642,642,642,642,642,642,0,0,0,0,0,0,0,0,0,0,0,0,0,3337,3252,3241,3217,3187,3153,3117,3081,3041,3007,2976,2948,2925,2906,2890,2880,2872,2861,0,0,0,0,0,0,0,0,0,0,0,0,0,0,0,65524,65519,65505,65480,65434,65350,65197,64923,64442,63618,62256,60114,56981,52856,48176,43615,39590,36170,33206,30482,27816,25140,22280,18677,16520,15178,14089,13169,12358,11656,11069,10573,10152,9784,9488,9237,9031,8865,8730,8619,9579,9560,9513,9432,9312,9152,8958,8739,7783,7665,7544,7423,7211,7071,6968,6882,6813,6761,6725,6701,6686,6674,6662,6651,6640,6630,6623,6619,6617,6617,6618,6621,6623,6624,6620,6620,6624,6636,6659,6694,6747,6802,6848,6883,6916,6932,6908,6957,6930,6888,6838,6788,6741,6708,6683,6664,6652,6689,6623,6617,6624,6652,6701,6788,6866,6964,7169,7285,7361,7368,6692,6571,6420,6268,5704,5478,5206,5080,4984,4837,4759,4689,4622,4558,4497,4441,4390,4343,4300,4259,4221,4186,4153,4123,4095,4069,4044,4019,3994,3968,3943,3919,3897,3878,3863,3852,3842,3834,3826,3818,3809,3800,3795,3787,3761,9225,8773,8740,8699,8644,8630,8568,8489,8319,7934,7997,7948,7830,7681,7547,7472,7361,7274,7188,7131,7086,7030,6970,6911,6850,6792,6734,6675,6616,6555,6490,6429,6378,6333,6294,6263,6240,6221,6172,6156
0,0,0,0,0,19832,20370,19952,19482,18933,18314,17664,17062,16481,16537,16284,17625,17464,17232,16910,16503,14817,14526,14200,13868,13514,13454,0,9898,9540,9348,9201,9098,9036,9007,9006,9027,9068,9127,9203,9292,9395,9509,9634,9773,9928,10104,10299,10511,10738,10978,11231,11501,11796,12129,12517,12987,13522,15319,15797,24227,24186,22957,26694,29372,33801,36378,39040,40601,41098,40316,38971,37738,36392,34786,33289,32014,30463,29517,28301,27631,26943,26445,26024,26010,26172,29657,30586,0,0,0,0,0,0,0,0,0,0,0,0,0,0,0,0,0,0,0,0,0,0,0,0,0,0,0,0,0,0,0,0,0,0,0,0,0,0,0,0,0,0,0,0,2228,2245,2244,2247,2249,2285,2281,0,0,0,0,0,0,0,0,2257,2318,2318,2253,2309,2239,2235,2276,2208,2199,2190,2183,2165,2156,2152,2149,2148,2150,2155,2164,2176,2192,2210,2239,2268,2280,2312,2320,2332,2340,2348,2363,2367,2373,2379,2417,2381,2379,2424,2390,2386,2404,2379,2375,2369,2369,2356,2346,2330,2320,2309,2301,2294,2291,2286,2282,2276,2273,2270,2270,2266,2261,2251,2243,2233,2223,2214,2205,2199,2196,2198,2204,2215,2231,2251,2274,2298,2322,2347,2371,2394,2417,2439,2460,2484,2508,2565,2616,2644,2656,0,2653,2658,2655,2659,2664,2669,2673,4720,4718,4716,0,0,0,0,4197,4326,3389,3378,3406,3411,3445,3424,3402,3378,3356,3334,3309,3280,3245,3204,3159,3114,3074,3039,3009,2968,2864,2815,2798,2790,2792,2791,2787,2780,2770,2754,2727,2708,2647,0,2193,2169,2168,0,0,0,0,0,0,0,0,0,0,0,0,0,0,0,0,0,0,0,0,0,0,0,0,0,0,0,0,0,0,0,0,0,0,646,645,645,644,644,643,643,643,643,643,643,643,643,643,643,643,643,643,643,642,642,642,642,642,642,642,642,642,642,642,642,642,642,642,642,642,642,642,642,642,642,642,642,642,642,642,642,643,643,643,643,642,642,642,642,642,642,642,642,642,642,642,642,642,642,642,642,642,642,642,642,642,642,642,0,0,0,0,0,0,0,0,0,0,0,3309,3300,3282,3270,3243,3215,3181,3143,3102,3061,3017,2982,2949,2920,2896,2877,2863,2854,2847,2840,0,0,0,0,0,0,0,0,0,0,0,0,0,0,0,0,65519,65507,65485,65444,65369,65231,64983,64546,63794,62539,60544,57579,53582,48897,44187,39978,36424,33410,30715,28143,25610,23072,18677,16432,15211,14179,13287,12495,11799,11203,10693,10254,9878,9547,9276,9051,8870,8723,8604,9505,9481,9437,9366,9261,9118,8942,7917,7800,7685,7570,7466,7062,7045,6953,6872,6805,6754,6718,6693,6678,6667,6657,6647,6637,6627,6616,6606,6596,6587,6579,6572,6566,6561,6556,6555,6559,6568,6586,6610,6645,6682,6714,6741,6767,6782,6758,6799,6779,6745,6702,6656,6610,6572,6537,6505,6476,6394,6417,6398,6390,6399,6430,6504,6545,6616,6876,6981,6435,6371,6270,6153,5744,5614,5447,5313,5195,5081,4992,4878,4801,4730,4661,4594,4531,4472,4417,4366,4319,4276,4237,4201,4168,4137,4109,4082,4056,4030,4003,3976,3949,3923,3899,3878,3861,3846,3834,3823,3812,3801,3791,3782,3776,3753,3752,3746,3727,8543,8657,8359,8575,8530,7935,7968,7889,7976,7912,7794,7622,7477,7434,7311,7225,7131,7083,7056,7007,6954,6901,6844,6787,6729,6666,6604,6539,6466,6397,6341,6293,6252,6219,6194,6177,6135,6130
0,0,0,0,0,0,19484,19904,19488,18977,18353,17661,17012,16379,16402,15751,17402,17155,16816,14771,14404,13986,13612,13204,12842,12405,15630,10895,9631,9373,9213,9097,9022,8983,8974,8988,9022,9071,9136,9215,9306,9409,9523,9649,9791,9952,10138,10352,10592,10858,11147,11459,11794,12159,12566,13039,13607,14285,15923,17445,21247,22759,24593,27464,34968,44131,50384,54522,41993,42791,41781,41481,41050,40092,38780,36670,34932,32572,31392,29501,28640,27679,27082,29237,29263,32038,0,0,0,0,0,0,0,0,0,0,0,0,0,0,0,0,0,0,0,0,0,0,0,0,0,0,0,0,0,0,0,0,0,0,0,0,0,0,0,0,0,0,0,0,0,0,2212,2225,2234,2239,2243,2247,2276,2274,0,0,0,0,0,0,0,2255,2313,2315,2314,2255,2243,2236,2281,2267,2254,2184,2163,2150,2142,2137,2134,2134,2136,2142,2150,2165,2182,2202,2232,2255,2273,2295,2309,2322,2329,2344,2351,2354,2394,2361,2367,2367,2410,2413,2401,2400,2397,2397,2369,2352,2360,2343,2333,2311,2300,2290,2281,2274,2270,2266,2263,2259,2257,2257,2257,2255,2251,2245,2238,2230,2220,2211,2203,2197,2194,2196,2202,2212,2227,2245,2266,2288,2310,2333,2354,2375,2395,2413,2430,2446,2467,2527,0,0,0,0,0,0,2651,2656,2662,2667,2671,2677,2681,2686,0,0,0,0,0,3344,3467,3313,3294,3305,3324,3315,3303,3288,3272,3255,3234,3208,3176,3137,3095,3054,3016,2983,2954,2920,2854,2818,2803,2796,2796,2795,2792,2786,2775,2757,2718,2698,2660,0,2162,2158,2157,2156,0,0,0,0,0,0,0,0,0,0,0,0,0,0,0,0,0,0,0,0,0,0,0,0,0,0,0,0,0,0,0,0,0,646,645,645,644,644,643,643,643,643,643,642,642,643,643,643,643,643,643,643,643,642,642,642,642,642,642,642,642,642,642,642,642,642,642,642,642,642,642,642,642,642,643,643,643,643,643,643,643,643,643,642,642,642,642,642,642,642,642,642,642,642,642,642,642,642,642,642,642,642,642,642,642,642,642,0,0,0,0,0,0,0,0,0,0,3396,3353,3331,3307,3274,3244,3211,3172,3130,3085,3040,2995,2957,2922,2893,2869,2851,2837,2828,2822,2818,0,0,0,0,0,0,0,0,0,0,0,0,0,0,0,0,65523,65509,65490,65454,65387,65263,65040,64644,63959,62808,60956,58157,54298,49617,44737,40279,36502,33344,30584,28006,25490,23029,19403,16780,15488,14409,13484,12669,11952,11334,10799,10334,9930,9571,9273,9025,8828,8667,8542,8443,9309,9265,9202,9109,8982,7989,7887,7771,7654,7539,7120,7120,7023,6933,6854,6789,6739,6702,6677,6661,6650,6641,6633,6625,6616,6605,6593,6578,6563,6548,6534,6521,6512,6505,6502,6505,6512,6526,6544,6569,6595,6619,6640,6660,6673,6665,6685,6670,6644,6608,6567,6524,6482,6440,6397,6353,6274,6268,6235,6212,6201,6206,6193,6259,6290,5973,5940,5895,5831,5686,5604,5576,5500,5362,5257,5164,5073,4996,4905,4833,4763,4693,4625,4559,4497,4439,4385,4336,4291,4250,4213,4180,4149,4120,4093,4066,4038,4010,3981,3952,3925,3899,3876,3856,3839,3825,3811,3798,3785,3773,3762,3754,3734,3732,3725,3711,3697,3691,0,8249,8269,8213,8156,8074,7981,7883,7785,7441,7433,7476,7343,7203,7087,7050,7049,7009,6963,6918,6865,6813,6753,6685,6617,6545,6455,6374,6315,6264,6219,6185,6163,6150,6104,6230
0,0,0,0,0,0,0,19537,18630,19056,18417,17662,16965,16672,15852,17563,17166,16817,16347,15750,13628,13083,12638,12078,11689,11322,10507,10063,9505,9237,9091,8998,8947,8931,8941,8971,9016,9074,9145,9226,9317,9419,9532,9658,9801,9969,10167,10402,10676,10989,11337,11717,12124,12563,13048,13605,14274,15166,16546,18007,20279,22548,24698,27428,29469,0,0,0,43090,44160,44586,44004,45754,45373,44086,41625,39881,34705,33295,34805,33726,31542,34414,0,0,0,0,0,0,0,0,0,0,0,0,0,0,0,0,0,0,0,0,0,0,0,0,0,0,0,0,0,0,0,0,0,0,0,0,0,0,0,0,0,0,0,0,0,0,0,0,2226,2218,2222,2233,2238,2243,2248,2254,2258,2272,2231,0,0,0,0,2243,2240,2307,2310,2312,2311,2253,2296,2284,2267,2251,2172,2146,2134,2126,2121,2118,2118,2121,2127,2136,2153,2173,2203,2225,2248,2265,2279,2294,2301,2311,2324,2348,2375,2383,2388,2395,2396,2360,2402,2376,2378,2386,2351,2385,2340,2327,2317,2312,2287,2277,2269,2261,2255,2251,2248,2246,2244,2244,2245,2246,2245,2243,2239,2234,2227,2219,2210,2203,2198,2196,2198,2204,2214,2228,2245,2264,2284,2304,2323,2342,2360,2376,2390,2403,2413,2422,0,0,0,0,0,0,2760,2642,2646,2653,2660,2667,2674,2680,2689,2703,2715,2726,0,2966,3034,3090,3112,3175,3194,3209,3208,3203,3194,3183,3169,3151,3127,3098,3064,3027,2991,2959,2932,2908,2883,2842,2818,2808,2804,2805,2806,2805,2801,2792,2774,2712,2688,0,0,2157,2155,2154,2153,0,0,0,0,0,0,0,0,0,0,0,0,0,0,0,0,0,0,0,0,0,0,0,0,0,0,0,0,0,0,0,0,0,646,645,645,644,644,643,643,643,643,643,642,642,643,643,643,643,643,643,643,643,642,642,642,642,642,642,642,642,642,642,642,642,642,642,642,642,642,642,642,643,643,643,643,643,643,643,643,643,643,643,642,642,642,642,642,642,642,642,642,642,642,642,642,642,642,642,642,642,642,642,642,641,641,641,0,0,0,0,0,0,3421,3376,3423,3397,3379,3356,3333,3306,3274,3240,3203,3160,3114,3066,3019,2973,2933,2898,2869,2845,2827,2814,2805,2800,2797,0,0,0,0,0,0,0,0,0,0,0,0,0,0,0,65529,65525,65512,65493,65462,65403,65292,65091,64733,64110,63055,61337,58702,54984,50326,45286,40561,36520,33177,30315,27697,25158,22678,19724,17354,15886,14702,13711,12849,12098,11448,10885,10390,9954,9558,9232,8958,8745,8571,8443,8345,8269,8206,8148,8089,8017,7931,7827,7708,7583,7456,7262,7103,7001,6910,6832,6768,6718,6680,6653,6635,6623,6614,6607,6603,6597,6588,6575,6559,6541,6522,6503,6487,6474,6464,6460,6461,6467,6478,6492,6510,6528,6546,6563,6578,6589,6588,6599,6588,6568,6539,6505,6466,6424,6378,6328,6276,6206,6174,6130,6094,6067,6051,6029,6046,6043,5918,5846,5787,5715,5611,5520,5463,5393,5295,5213,5139,5067,5000,4925,4857,4789,4718,4649,4581,4516,4456,4400,4349,4302,4261,4223,4189,4158,4129,4100,4072,4044,4014,3984,3953,3923,3896,3871,3850,3831,3815,3800,3785,3770,3756,3744,3733,3717,3711,3702,3690,3677,3662,3648,0,8226,8211,8160,8092,7985,7894,7422,7432,7384,7279,7464,7260,7039,7013,7054,7024,6987,6956,6907,6860,6798,6722,6648,6565,6457,6363,6297,6237,6192,6155,6139,6137,6197,6116
0,0,0,0,0,0,0,0,19138,18797,18478,17562,16791,16454,16015,17458,16879,16425,15818,15073,14231,12148,11610,11078,10727,10416,9916,9589,9233,9047,8943,8887,8868,8878,8910,8956,9013,9079,9154,9237,9327,9427,9538,9662,9807,9980,10191,10449,10759,11122,11532,11980,12456,12959,13503,14118,14849,15784,17101,18599,20627,22753,24551,27362,29687,33418,0,0,0,0,0,52280,49089,50222,48826,45057,43311,47030,45524,44108,42941,0,0,0,0,0,0,0,0,0,0,0,0,0,0,0,0,0,0,0,0,0,0,0,0,0,0,0,0,0,0,0,0,0,0,0,0,0,0,0,0,0,0,0,0,0,0,0,0,0,0,2221,2222,2225,2228,2233,2243,2249,2255,2254,2263,2271,2295,2259,2263,2270,2243,2235,2300,2274,2308,2247,2265,2297,2284,2264,2248,2221,2124,2113,2106,2102,2100,2101,2105,2112,2121,2142,2168,2203,2222,2240,2256,2268,2316,2328,2338,2347,2336,2363,2372,2376,2383,2384,2345,0,2356,2358,2373,2382,2374,2366,2313,2295,2288,2260,2255,2248,2242,2237,2234,2232,2231,2231,2232,2234,2236,2237,2236,2234,2230,2224,2217,2210,2205,2201,2200,2203,2210,2221,2234,2250,2267,2285,2303,2320,2336,2351,2364,2375,2384,2390,2390,2367,2363,0,0,0,0,0,2616,2625,2636,2647,2657,2666,2676,2688,2703,2718,2734,2768,2846,2930,2991,3031,3073,3092,3107,3110,3110,3105,3097,3085,3069,3047,3021,2991,2961,2932,2908,2888,2871,2855,2832,2819,2814,2815,2819,2823,2826,2826,2822,2807,0,0,0,0,2154,2152,2151,2152,0,0,0,0,0,0,0,0,0,0,0,0,0,0,0,0,0,0,0,0,0,0,0,0,0,0,0,0,0,0,0,0,0,646,645,645,645,644,644,643,643,643,643,643,643,643,643,643,643,643,643,643,643,643,642,642,642,642,642,642,642,642,642,642,642,642,642,642,642,642,642,642,643,643,643,643,643,643,643,643,643,643,643,642,642,642,642,642,642,642,642,642,642,642,642,642,642,642,642,642,642,642,642,641,641,641,641,0,0,0,0,3325,3449,3398,3401,3401,3393,3377,3355,3331,3302,3269,3232,3192,3146,3097,3047,2998,2952,2912,2877,2848,2825,2807,2794,2786,2781,2780,0,0,0,0,0,0,0,0,0,0,0,0,0,0,0,0,65526,65514,65498,65467,65417,65319,65137,64812,64245,63278,61689,59214,55650,51055,45906,40958,36678,33166,30224,27606,25105,22676,20045,17889,16256,14971,13914,13004,12216,11536,10945,10421,9952,9515,9160,8861,8634,8450,8323,8232,8165,8112,8065,8013,7947,7864,7762,7642,7514,7383,7222,7077,6974,6884,6808,6745,6694,6654,6624,6602,6587,6577,6572,6572,6570,6564,6554,6539,6521,6500,6479,6460,6445,6434,6428,6427,6430,6437,6447,6460,6473,6485,6497,6509,6518,6519,6526,6519,6504,6482,6454,6420,6380,6334,6283,6228,6163,6119,6071,6028,5991,5962,5931,5919,5896,5809,5745,5684,5613,5525,5444,5388,5325,5251,5186,5125,5066,5008,4942,4878,4810,4739,4667,4596,4530,4468,4411,4359,4312,4270,4232,4197,4165,4134,4105,4076,4046,4016,3984,3952,3921,3892,3866,3844,3825,3808,3792,3776,3759,3744,3729,3716,3700,3691,3680,3667,3655,3641,3628,3605,3584,8206,8161,8069,7997,7911,7415,7403,7368,7302,7292,7278,6980,6958,7063,7039,7085,6998,6953,6916,6849,6761,6682,6594,6459,6345,6283,6223,6132,6095,6080,6091,6094,6122
0,0,0,0,0,0,0,0,0,18898,17798,17455,16557,16115,13588,13089,16575,16045,15334,14478,13533,12425,11705,10191,9888,9662,9364,9157,8950,8842,8792,8779,8795,8831,8884,8946,9014,9087,9165,9248,9337,9433,9541,9664,9810,9989,10213,10494,10839,11250,11718,12226,12757,13305,13883,14524,15278,16223,17494,19024,20909,22987,24813,27685,29597,33546,0,0,0,0,0,0,54317,52980,51541,53728,53991,0,0,0,0,0,0,0,0,0,0,0,0,0,0,0,0,0,0,0,0,0,0,0,0,0,0,0,0,0,0,0,0,0,0,0,0,0,0,0,0,0,0,0,0,0,0,0,0,0,0,0,0,0,0,2223,2228,2229,2232,2235,2239,2244,2249,2254,2262,2270,2294,2321,2263,2269,2278,2287,2294,2362,2358,2281,2251,2200,2235,2214,2250,2101,2097,2089,2084,2081,2081,2083,2088,2095,2104,2132,2147,2187,2220,2241,2256,2265,2276,2284,2291,2334,2351,2350,2361,2363,0,2328,2329,0,2334,2335,2361,0,2364,2355,2289,2240,2235,2239,2235,2230,2225,2222,2219,2218,2218,2220,2222,2225,2227,2229,2230,2228,2226,2221,2216,2211,2206,2204,2205,2210,2218,2229,2243,2259,2275,2292,2308,2323,2338,2351,2362,2370,2376,2380,2379,2368,2366,2369,2376,0,0,2522,2578,2594,2611,2626,2640,2653,2667,2682,2699,2717,2736,2766,2812,2873,2922,2956,2987,3007,3022,3029,3031,3028,3021,3011,2996,2976,2953,2928,2904,2882,2864,2851,2842,2834,2824,2820,2822,2828,2836,2845,2853,2858,2859,2842,0,0,0,0,0,0,0,0,0,0,0,0,0,0,0,0,0,0,0,0,0,0,0,0,0,0,0,0,0,0,0,0,0,0,0,0,0,0,0,0,0,646,646,645,645,644,644,643,643,643,643,643,643,643,643,643,643,643,643,643,643,643,642,642,642,642,642,642,642,642,642,642,642,642,642,642,642,642,642,642,643,643,643,643,643,643,643,643,643,643,643,642,642,642,642,642,642,642,642,642,642,642,642,642,642,642,642,642,642,642,641,641,641,641,641,0,3203,3304,3334,3316,3350,3379,3389,3392,3386,3371,3350,3324,3294,3259,3220,3177,3130,3079,3028,2979,2933,2892,2858,2829,2807,2790,2777,2769,2765,2767,0,0,0,0,0,0,0,0,0,0,0,0,0,0,0,0,0,65519,65504,65476,65431,65344,65179,64884,64370,63487,62022,59712,56325,51844,46665,41567,37093,33431,30413,27801,25342,22957,20473,18437,16589,15191,14075,13120,12299,11593,10978,10428,9929,9445,9074,8750,8517,8322,8202,8120,8067,8026,7987,7943,7881,7801,7701,7583,7456,7326,7179,7053,6951,6863,6787,6723,6671,6627,6593,6566,6548,6537,6533,6539,6542,6539,6532,6519,6502,6481,6460,6441,6424,6411,6404,6400,6401,6404,6410,6417,6424,6432,6440,6447,6454,6457,6461,6457,6447,6431,6409,6380,6344,6301,6252,6198,6138,6090,6041,5996,5956,5920,5883,5856,5820,5749,5687,5623,5552,5474,5401,5344,5287,5227,5172,5121,5070,5018,4958,4896,4827,4755,4682,4611,4542,4478,4420,4368,4321,4278,4239,4203,4170,4138,4107,4077,4046,4015,3983,3952,3920,3891,3864,3840,3820,3803,3787,3770,3753,3735,3718,3702,3686,3672,3659,3646,3633,3619,3607,3589,3575,3557,3556,8171,7945,7916,7875,7701,7357,7311,7305,7297,6915,6880,7229,7242,7127,7174,7123,7016,6889,6787,6710,6634,6498,6320,6248,6078,6149,6108,6128,5708,6112,6077
0,0,0,0,0,0,0,0,0,0,0,15800,16104,17594,15785,15266,14825,14327,13601,12692,11698,9378,9268,9314,9206,9069,8908,8798,8699,8659,8660,8687,8735,8796,8867,8941,9017,9096,9175,9257,9343,9437,9541,9663,9811,9997,10234,10535,10912,11367,11886,12442,13011,13581,14167,14804,15549,16471,17705,19285,21089,23211,25042,26973,30459,0,0,0,0,0,0,0,0,0,0,0,0,0,0,0,0,0,0,0,0,0,0,0,0,0,0,0,0,0,0,0,0,0,0,0,0,0,0,0,0,0,0,0,0,0,0,0,0,0,0,0,0,0,0,0,0,0,3482,0,0,0,0,0,0,0,2235,2234,2235,2234,2235,2237,2240,2244,2249,2254,2261,2268,2291,2316,2262,2267,2275,2283,2353,2350,2344,2301,2227,2251,0,2212,2246,2078,2070,2065,2062,2061,2062,2065,2071,2079,2088,2131,2146,2157,2203,2226,2245,2257,2265,2270,2276,2256,2319,2337,0,0,0,2311,0,2308,0,0,0,0,0,0,2214,2220,2219,2221,2218,2215,2211,2209,2207,2207,2208,2210,2214,2217,2220,2223,2224,2223,2222,2219,2215,2211,2208,2207,2210,2216,2226,2238,2253,2269,2286,2302,2318,2333,2347,2359,2368,2374,2378,2380,2379,2372,2372,2377,2389,2415,2439,2482,2537,2559,2580,2599,2617,2634,2651,2669,2688,2708,2728,2755,2789,2832,2867,2895,2920,2941,2958,2967,2970,2968,2961,2952,2938,2920,2899,2878,2858,2841,2829,2822,2819,2817,2818,2821,2829,2840,2854,2868,2880,2890,2896,2898,0,0,0,0,0,0,0,0,0,0,0,0,0,0,0,0,0,0,0,0,0,0,0,0,0,0,0,0,0,0,0,0,0,0,0,0,0,0,0,0,0,646,646,645,645,644,644,644,643,643,643,643,643,643,643,643,643,643,643,643,643,643,642,642,642,642,642,642,642,642,642,642,642,642,642,642,642,642,642,642,643,643,643,643,643,643,643,643,643,643,643,642,642,642,642,642,642,642,642,642,642,642,642,642,642,642,642,642,642,641,641,641,641,641,641,0,3197,3226,3253,3296,3329,3358,3372,3379,3375,3361,3340,3314,3282,3245,3205,3161,3112,3062,3010,2961,2915,2875,2841,2813,2791,2775,2763,2755,2751,2758,0,0,0,0,0,0,0,0,0,0,0,0,0,0,0,0,0,65521,65508,65485,65445,65368,65218,64947,64479,63672,62322,60172,56970,52645,47514,42349,37743,33951,30857,28261,25844,23482,21004,19049,16865,15338,14178,13192,12347,11623,10990,10420,9899,9369,8982,8642,8413,8205,8096,8029,7990,7960,7927,7887,7826,7748,7651,7537,7414,7288,7154,7035,6935,6847,6771,6706,6651,6604,6565,6535,6513,6501,6498,6511,6520,6520,6514,6502,6486,6467,6447,6427,6410,6397,6388,6383,6380,6380,6381,6383,6385,6388,6391,6395,6399,6401,6404,6402,6395,6384,6368,6344,6314,6276,6231,6180,6126,6078,6030,5987,5947,5909,5870,5834,5791,5726,5662,5595,5524,5449,5381,5324,5271,5218,5170,5125,5079,5030,4973,4912,4843,4770,4696,4622,4552,4488,4429,4376,4328,4285,4246,4209,4173,4140,4107,4076,4045,4014,3983,3951,3920,3890,3863,3839,3819,3802,3785,3768,3750,3732,3712,3693,3674,3658,3642,3627,3613,3600,3588,3573,3560,3546,3537,3519,3543,0,0,0,7328,7277,7282,7284,6333,6231,6007,7278,7162,7124,7197,7019,6971,6365,6281,6223,6185,6388,6123,6399,6122,6067,5648,5995,5646,6057
0,0,0,0,0,0,0,0,0,0,0,0,14375,16520,10625,8895,8705,8916,8758,8664,8649,8859,8793,8796,8732,8659,8583,8540,8512,8521,8561,8619,8692,8771,8856,8939,9020,9102,9181,9262,9345,9436,9539,9661,9811,10003,10251,10572,10977,11469,12029,12620,13209,13782,14353,14962,15665,16532,17724,19382,21119,23378,25590,27640,30860,0,0,0,0,0,0,0,0,0,0,0,0,0,0,0,0,0,0,0,0,0,0,0,0,0,0,0,0,0,0,0,0,0,0,0,0,0,0,0,0,0,0,0,0,0,0,0,0,0,0,0,0,0,0,0,0,3307,3324,3417,0,0,0,0,0,0,2254,2248,2242,2240,2239,2239,2241,2244,2247,2252,2258,2265,2274,2311,2323,2267,2273,2343,2305,2307,2332,2303,0,2259,2255,2085,2057,2036,2045,2042,2041,2041,2044,2049,2056,2065,2022,1994,2144,2157,2201,2231,2240,2271,2278,2298,2237,2240,2285,2324,0,0,0,0,0,0,0,0,0,2178,2180,2184,2203,2207,2207,2208,2205,2203,2200,2199,2198,2199,2201,2204,2207,2211,2215,2218,2219,2219,2218,2216,2213,2210,2208,2209,2213,2221,2232,2245,2261,2279,2297,2314,2332,2347,2362,2374,2382,2387,2389,2388,2385,2380,2379,2383,2393,2411,2432,2465,2505,2528,2550,2571,2591,2611,2630,2649,2670,2690,2712,2736,2764,2795,2823,2847,2870,2896,2915,2925,2930,2927,2919,2909,2896,2878,2859,2840,2823,2810,2802,2798,2799,2803,2811,2820,2833,2849,2866,2884,2900,2912,2921,2944,2989,0,0,0,0,0,0,0,0,0,0,0,0,0,0,0,0,0,0,0,0,0,0,0,0,0,0,0,0,0,0,0,0,0,0,0,0,0,0,0,0,646,646,645,645,645,644,644,643,643,643,643,643,643,643,643,643,643,643,643,643,643,642,642,642,642,642,642,642,642,642,642,642,642,642,642,642,642,642,642,643,643,643,643,643,644,644,643,643,643,643,642,642,642,642,642,642,642,642,642,642,642,642,642,642,642,642,642,642,641,641,641,641,641,0,3157,3183,3209,3236,3273,3305,3333,3351,3361,3359,3347,3326,3299,3266,3227,3187,3143,3094,3044,2994,2945,2900,2860,2826,2798,2777,2761,2750,2742,2739,2746,0,0,0,0,0,0,0,0,0,0,0,0,0,0,0,0,0,65523,65513,65495,65459,65392,65252,64996,64563,63815,62559,60541,57503,53334,48291,43124,38446,34558,31408,28889,26563,24236,21642,19810,17191,15377,14209,13217,12364,11631,10990,10410,9876,9285,8906,8546,8334,8104,8013,7962,7939,7916,7886,7845,7781,7704,7610,7501,7383,7263,7139,7025,6925,6837,6760,6693,6635,6586,6545,6512,6490,6477,6473,6557,6510,6510,6505,6494,6478,6459,6439,6420,6403,6390,6380,6373,6367,6364,6361,6359,6357,6355,6355,6355,6356,6356,6356,6354,6349,6341,6328,6310,6286,6254,6215,6170,6122,6076,6032,5991,5953,5916,5877,5837,5791,5729,5663,5593,5520,5446,5379,5321,5269,5220,5176,5134,5090,5042,4988,4926,4857,4784,4709,4634,4563,4497,4437,4384,4336,4292,4251,4213,4176,4141,4108,4075,4044,4013,3982,3951,3921,3891,3864,3840,3819,3802,3786,3769,3750,3730,3709,3687,3666,3646,3629,3612,3598,3584,3571,3558,3546,3533,3522,3509,3495,3489,0,0,0,0,7314,7323,7312,6153,5980,5951,5959,7294,0,0,7007,6325,6222,6162,6134,0,6071,6073,6083,5886,5901,5592,5596,5637
0,0,0,0,0,0,0,0,0,0,0,0,0,9706,9337,9096,8864,8706,8565,8477,8450,8527,8485,8477,8443,8407,8379,8376,8388,8427,8493,8572,8661,8753,8849,8937,9018,9103,9182,9260,9342,9431,9533,9656,9810,10007,10265,10601,11030,11551,12140,12754,13351,13912,14451,15010,15642,16409,17537,19349,20942,23521,25475,28722,0,0,0,0,0,0,0,0,0,0,0,0,0,0,0,0,0,0,0,0,0,0,0,0,0,0,0,0,0,0,0,0,0,0,0,0,0,0,0,0,0,0,0,0,0,0,0,0,0,0,0,0,3170,3182,3171,3184,3211,3249,3213,3394,0,0,0,0,0,2283,2268,2256,2249,2244,2242,2240,2241,2242,2245,2249,2254,2260,2271,2270,2315,2287,2294,2299,2302,2303,2282,2304,2288,2265,2256,2055,2036,2019,2023,2022,2022,2024,2028,2035,2043,2054,2004,1989,2143,2158,2174,2217,2271,2265,2271,2274,2223,2225,2299,0,0,0,0,0,2190,2206,2178,2176,2176,2190,2189,2189,2195,2198,2198,2198,2197,2195,2193,2191,2191,2193,2195,2199,2203,2208,2211,2214,2218,2215,2214,2213,2211,2208,2207,2208,2213,2222,2234,2248,2267,2286,2306,2326,2345,2364,2380,2393,2402,2406,2406,2402,2397,2390,2387,2388,2394,2408,2425,2450,2480,2502,2524,2545,2565,2585,2604,2624,2644,2665,2687,2710,2736,2763,2788,2811,2834,2869,2892,2904,2909,2903,2891,2881,2867,2850,2831,2813,2797,2786,2779,2777,2780,2788,2802,2816,2833,2851,2871,2890,2906,2918,2926,2950,0,0,0,0,0,0,0,0,0,0,0,0,0,0,0,0,0,0,0,0,0,0,0,0,0,0,0,0,0,0,0,0,0,0,0,0,0,0,0,0,0,0,646,646,645,645,644,644,643,643,643,643,643,643,643,643,643,643,643,643,643,643,642,642,642,642,642,642,642,642,642,642,642,642,642,642,642,642,642,642,643,643,643,643,643,644,644,643,643,643,643,642,642,642,642,642,642,642,642,642,642,642,642,642,642,642,642,642,642,641,641,641,641,641,0,3150,3170,3193,3218,3249,3279,3306,3327,3339,3339,3329,3309,3282,3247,3207,3167,3123,3077,3028,2978,2930,2884,2844,2810,2783,2762,2747,2736,2729,2726,2738,0,0,0,0,0,0,0,0,0,0,0,0,0,0,0,0,0,65525,65517,65503,65474,65419,65279,65024,64611,63898,62696,60757,57822,53759,48791,43651,38958,35165,31834,29517,27395,25134,22262,20538,18157,1816,1810,1801,1791,1781,1769,1758,0,9004,8748,8463,8304,8013,7945,7913,7908,7911,7856,7812,7739,7660,7569,7467,7357,7244,7128,7019,6920,6831,6752,6684,6624,6575,6533,6501,6481,6471,6471,6488,6502,6505,6502,6491,6476,6457,6437,6418,6401,6387,6376,6367,6360,6354,6348,6343,6337,6332,6328,6325,6322,6319,6317,6312,6307,6300,6290,6276,6257,6232,6200,6162,6120,6079,6039,6002,5966,5931,5893,5853,5806,5746,5679,5607,5532,5457,5389,5330,5277,5229,5186,5145,5102,5054,5000,4939,4870,4796,4721,4646,4573,4506,4446,4391,4342,4298,4256,4217,4180,4143,4109,4075,4043,4012,3981,3951,3921,3892,3865,3841,3820,3803,3786,3769,3750,3729,3706,3683,3659,3638,3618,3601,3585,3571,3558,3545,3532,3520,3508,3495,3482,3465,3448,3450,0,0,0,0,0,7327,5960,5944,7203,0,0,7094,7111,7073,0,0,0,0,0,0,5669,5730,5556,5931,5565,0
0,0,0,0,0,0,0,0,0,0,0,0,9337,9496,9261,9020,8779,8611,8472,8382,8343,8353,8323,8312,8294,8274,8270,8285,8316,8368,8450,8541,8639,8737,8841,8931,9012,9099,9178,9256,9336,9424,9526,9650,9806,10008,10274,10622,11066,11607,12216,12842,13436,13976,14475,14971,15508,16128,17179,17703,19007,0,0,0,0,0,0,0,0,0,0,0,0,0,0,0,0,0,0,0,0,0,0,0,0,0,0,0,0,0,0,0,0,0,0,0,0,0,0,0,0,0,0,0,0,0,0,0,0,0,0,0,0,0,3106,3102,3119,3130,3151,3161,3182,3216,3244,2913,2547,2527,2503,0,0,2285,2274,2262,2254,2247,2243,2240,2239,2239,2241,2245,2249,2255,2262,2266,2281,2294,2300,2304,2305,2304,2266,2305,2290,2269,2079,2006,1999,2003,2004,2003,2005,2008,2013,2021,2031,1991,1991,1983,1977,2157,2172,2187,0,0,0,0,2188,2191,0,2079,2079,0,0,2175,2212,2197,2175,2193,2190,2187,2186,2187,2190,2192,2192,2192,2191,2189,2188,2187,2187,2189,2192,2196,2201,2205,2208,2212,2211,2212,2210,2210,2207,2204,2203,2205,2209,2219,2232,2247,2268,2290,2313,2335,2357,2378,2398,2413,2423,2427,2426,2420,2411,2402,2396,2393,2396,2405,2418,2437,2461,2481,2502,2522,2541,2559,2577,2595,2615,2635,2657,2680,2705,2731,2756,2782,2808,2857,2887,2900,2903,2893,2874,2862,2847,2830,2812,2795,2778,2767,2760,2758,2761,2770,2791,2808,2827,2847,2867,2885,2899,2909,2914,2925,0,0,0,0,0,0,0,0,0,0,0,0,0,0,0,0,0,0,0,0,0,0,0,0,0,0,0,0,0,0,0,0,0,0,0,0,0,0,0,0,0,647,646,646,645,645,644,644,643,643,643,643,643,642,642,643,643,643,643,643,643,642,642,642,642,642,642,642,642,642,642,642,642,642,642,642,642,642,642,642,642,643,643,643,643,643,643,643,643,643,643,643,642,642,642,642,642,642,642,642,642,642,642,642,642,642,642,642,642,641,641,641,641,641,641,3146,3159,3181,3203,3229,3256,3281,3301,3316,3318,3310,3290,3263,3226,3184,3143,3101,3056,3009,2960,2912,2867,2827,2793,2766,2746,2731,2720,2714,2712,0,0,0,0,0,0,0,0,0,0,0,0,0,0,0,0,0,0,65528,65524,65516,65500,65453,65439,0,0,0,0,0,0,0,0,0,0,0,32532,29856,28089,26094,1849,1839,1830,1818,1809,1800,1789,1777,1764,1751,1723,1702,1667,1660,1647,7771,7907,7905,7916,7860,7814,7764,7688,7608,7521,7427,7326,7222,7115,7012,6914,6826,6746,6678,6618,6569,6529,6499,6481,6474,6478,6492,6505,6509,6506,6496,6480,6460,6439,6418,6400,6385,6372,6362,6353,6345,6338,6331,6323,6316,6309,6303,6296,6290,6283,6275,6267,6260,6251,6241,6227,6208,6183,6152,6117,6082,6046,6012,5979,5946,5911,5872,5825,5767,5701,5628,5551,5476,5406,5344,5290,5242,5198,5156,5113,5065,5010,4949,4880,4806,4731,4655,4582,4514,4453,4397,4348,4303,4261,4222,4184,4147,4111,4076,4043,4011,3980,3949,3920,3891,3864,3840,3820,3802,3785,3768,3749,3727,3703,3678,3653,3631,3610,3592,3576,3561,3548,3534,3521,3508,3496,3482,3469,3453,3439,3427,3406,3411,3402,3397,0,0,0,5945,7202,7172,7143,0,0,0,0,0,0,0,0,0,0,0,0,0,0,0
0,0,0,0,0,0,0,0,0,0,0,0,9580,9849,9406,9130,8835,8640,8489,8388,8333,8300,8273,8257,8245,8225,8228,8246,8283,8335,8427,8522,8623,8723,8834,8922,8999,9097,9174,9251,9331,9419,9521,9646,9804,10008,10278,10634,11085,11636,12254,12883,13472,13996,14464,14909,15366,15893,15336,1672,1674,1677,1680,1683,1686,1685,1689,1689,1688,0,0,0,0,0,0,0,0,0,0,0,0,0,0,0,0,0,0,0,0,0,0,0,0,0,0,0,0,0,0,0,0,0,0,0,0,0,0,0,0,0,2990,3019,3027,3052,3065,3086,3101,3111,3128,3134,3151,3222,3137,2497,2511,2484,2476,2434,2379,2304,2280,2266,2256,2248,2242,2238,2236,2235,2236,2241,2244,2248,2264,2274,2269,2270,2289,2291,2263,2258,2293,0,0,2122,1955,1989,1987,1987,1987,1987,1989,1993,2000,2009,2019,1982,1984,1979,1976,2153,2169,2183,2194,0,0,0,0,0,0,0,0,0,0,0,2185,2189,2188,2188,2186,2185,2185,2185,2188,2189,2190,2190,2189,2187,2186,2185,2185,2187,2190,2195,2199,2203,2206,2208,2207,2208,2205,2205,2202,2198,2165,2170,2203,2212,2226,2240,2264,2289,2315,2341,2367,2391,2414,2432,2445,2450,2447,2438,2427,2414,2404,2399,2398,2402,2412,2427,2446,2464,2483,2502,2519,2536,2551,2568,2585,2604,2625,2648,2672,2699,2726,2753,2781,2852,2891,2904,2907,2882,2860,2846,2832,2815,2798,2781,2763,2750,2741,2737,2739,2747,2776,2795,2816,2837,2856,2873,2883,2890,2893,2888,2892,0,0,0,0,0,0,0,0,0,0,0,0,0,0,0,0,0,0,0,0,0,0,0,0,0,0,0,0,0,0,0,0,0,0,0,0,0,0,0,0,647,646,645,645,645,644,644,643,643,643,643,642,642,642,642,643,643,643,643,643,642,642,642,642,642,642,642,642,642,642,642,642,642,642,642,642,642,642,642,642,643,643,643,643,643,643,643,643,643,643,643,642,642,642,642,642,642,642,642,642,642,642,642,642,642,642,642,641,641,641,641,641,641,0,0,3154,3178,3196,3217,3239,3260,3279,3296,3298,3292,3272,3244,3202,3155,3114,3073,3030,2984,2937,2890,2846,2806,2773,2747,2727,2712,2702,2697,2697,0,0,0,0,0,0,0,0,0,0,0,0,0,0,0,0,0,0,0,65528,65522,65511,0,0,0,0,0,0,0,0,0,0,0,0,0,0,0,1876,1864,1851,1840,1830,1819,1808,1797,1785,1772,1759,1745,1714,1697,1663,1655,1656,1645,0,8179,7881,7849,7787,7725,7624,7542,7460,7374,7284,7190,7093,6997,6905,6820,6743,6677,6618,6571,6533,6505,6489,6484,6489,6501,6512,6517,6514,6504,6487,6465,6441,6418,6397,6379,6365,6353,6342,6334,6326,6319,6311,6303,6295,6286,6276,6265,6254,6242,6231,6222,6213,6205,6195,6182,6164,6140,6112,6082,6051,6020,5990,5959,5926,5889,5844,5788,5723,5650,5572,5495,5424,5360,5304,5254,5209,5166,5121,5073,5018,4956,4887,4813,4737,4661,4587,4519,4458,4403,4353,4309,4267,4228,4190,4153,4116,4080,4044,4010,3978,3947,3916,3888,3861,3838,3817,3799,3781,3764,3745,3723,3698,3673,3648,3625,3604,3585,3569,3554,3539,3525,3512,3498,3485,3471,3458,3443,3429,3418,3403,3393,3395,3389,3380,0,0,0,0,0,0,0,0,0,0,0,0,0,0,0,0,0,0,0,0,0
0,0,0,0,0,0,0,0,17444,16379,15952,15090,13295,11135,9750,9423,9022,8780,8603,8481,8406,8330,8300,8274,8260,8226,8226,8238,8271,8314,8416,8511,8610,8707,8744,8828,8898,8996,9051,0,0,0,0,0,0,0,1630,1628,1627,1626,1626,1626,1627,1629,1631,1634,1637,1641,1647,1664,1666,1670,1673,1676,1678,1678,1679,1679,1679,1677,1681,1679,1678,1674,1675,1676,1677,1676,0,0,0,0,0,0,0,0,0,0,0,0,0,0,0,0,0,0,0,0,0,0,0,0,0,0,0,0,0,0,0,0,2965,3005,3025,3042,3054,3071,3086,3096,3113,3117,3092,2496,2462,2467,2459,2452,2440,2394,2350,2313,2280,2265,2254,2246,2239,2234,2232,2230,2231,2236,2246,2245,2259,2260,2263,2258,2256,2252,2249,2242,2279,2259,2169,1953,1953,1978,1974,1973,1972,1973,1975,1980,1987,1996,2008,1976,1980,1977,2133,2148,2164,0,0,0,0,0,0,2121,2125,2129,2135,2141,2118,2168,2176,2180,2182,2183,2183,2183,2184,2185,2187,2189,2190,2190,2190,2189,2187,2186,2130,2130,2133,2194,2197,2201,2204,2205,2203,2202,2199,2214,2208,2156,2164,2165,2171,2183,2201,2230,2256,2286,2315,2345,2374,2402,2428,2450,2464,2470,2467,2457,2442,2426,2413,2404,2400,2401,2407,2418,2434,2450,2467,2484,2500,2515,2529,2543,2558,2575,2594,2616,2640,2667,2695,2724,2753,2844,2890,2901,2906,2882,2845,2829,2815,2800,2784,2767,2748,2732,2720,2712,2711,2717,2760,2779,2801,2822,2840,2855,2862,2867,2869,2866,2839,0,0,0,2181,2179,2176,2175,0,0,0,0,0,0,0,0,0,0,0,0,0,0,0,0,0,0,0,0,0,0,0,0,0,0,0,0,0,0,0,0,0,647,646,645,645,644,644,643,643,643,643,642,642,642,642,642,643,643,643,643,642,642,642,642,642,642,642,642,642,642,642,642,642,642,642,642,642,642,642,642,642,642,643,643,643,643,643,643,643,643,643,643,642,642,642,642,642,642,642,642,642,642,642,642,642,642,642,642,641,641,641,641,641,641,641,0,3165,3183,3197,3214,3229,3245,3261,3280,3281,3277,3256,3226,3176,3119,3077,3036,2995,2952,2907,2862,2820,2781,2749,2724,2705,2691,2682,2677,2680,0,0,0,0,0,0,0,0,0,0,0,0,0,0,0,0,0,0,0,0,0,0,0,0,0,0,0,0,0,0,0,0,0,0,0,1912,1900,1882,1867,1853,1841,1829,1817,1806,1794,1781,1767,1754,1732,1714,1690,1659,1649,1648,1638,1618,1606,1597,7841,7748,7678,7543,7459,7383,7307,7228,7147,7061,6975,6891,6813,6742,6682,6626,6582,6546,6519,6503,6498,6501,6511,6521,6526,6523,6512,6493,6469,6442,6415,6390,6369,6351,6336,6326,6317,6311,6305,6299,6291,6282,6271,6259,6244,6229,6214,6199,6188,6179,6172,6165,6156,6143,6126,6104,6079,6053,6026,5998,5970,5939,5903,5860,5806,5741,5668,5591,5513,5440,5375,5317,5265,5218,5173,5127,5077,5022,4959,4890,4816,4740,4664,4587,4520,4460,4406,4358,4314,4274,4236,4198,4161,4123,4085,4048,4011,3977,3944,3913,3884,3857,3834,3813,3794,3776,3758,3738,3717,3692,3667,3642,3619,3599,3580,3563,3548,3533,3518,3504,3490,3476,3462,3448,3434,3421,3409,3396,3386,3376,3370,3354,0,0,0,0,0,0,0,0,0,0,0,0,0,0,0,0,0,0,0,0,0
0,0,0,0,0,0,18403,18313,17810,17218,16510,15735,14515,12237,10902,9939,9379,9107,8892,8615,8531,8397,8363,8323,8305,8243,8237,8238,8247,8275,0,0,0,0,0,0,0,0,0,0,0,0,0,1655,1649,1635,1631,1629,1627,1626,1625,1626,1626,1628,1630,1632,1635,1639,1644,1651,1658,1661,1664,1667,1669,1670,1671,1671,1671,1670,1669,1669,1669,1668,1669,1671,1672,1673,1675,1677,1679,1681,1683,1687,0,0,0,0,0,0,0,0,0,0,0,0,2483,2473,2466,2463,2460,2458,2459,2464,2485,2651,2712,2750,2787,2896,2950,2995,3014,3033,3052,3065,3060,3061,2382,2413,2406,2435,2434,2432,2429,2397,2384,2359,2324,2295,2271,2257,2246,2239,2232,2228,2225,2224,2223,2232,2242,2242,2243,2244,2252,2249,2248,2242,2248,2244,2201,2183,2137,1952,1938,1967,1962,1960,1959,1960,1962,1967,1975,1984,1995,2012,2082,2082,0,0,0,0,0,0,0,0,2113,2122,2124,2082,2128,2148,2154,2160,2168,2173,2176,2179,2180,2181,2184,2186,2189,2191,2193,2194,2194,2193,2191,2189,2130,2130,2133,2137,2196,2199,2201,2201,2198,2196,2189,2180,2173,2157,2143,2144,2151,2164,2185,2217,2248,2280,2314,2348,2380,2411,2440,2464,2481,2488,2485,2473,2456,2437,2421,2408,2401,2399,2402,2410,2422,2436,2452,2467,2482,2496,2509,2522,2536,2551,2568,2588,2610,2636,2664,2693,2724,2809,2868,2880,2878,2855,2816,2801,2790,2779,2765,2749,2727,2708,2692,2680,2675,2677,2742,2760,2783,2803,2819,2832,2837,2841,2844,2845,2836,0,0,0,2185,2182,2179,2177,0,0,0,0,0,0,0,0,0,0,0,0,0,0,0,0,0,0,0,0,0,0,0,0,0,0,0,0,0,0,0,0,0,648,646,645,645,644,644,643,643,643,643,642,642,642,642,642,643,643,643,643,642,642,642,642,642,642,642,642,642,642,642,642,642,642,642,642,642,642,642,642,642,642,642,643,643,643,643,643,643,643,643,643,642,642,642,642,642,643,643,643,642,642,642,642,642,642,642,642,641,641,641,641,641,640,640,0,0,3199,3204,3217,3225,3234,3245,3253,3269,3265,3245,3214,3148,3075,3030,2990,2951,2911,2870,2828,2789,2753,2722,2698,2680,2667,2659,2655,2663,0,0,0,0,0,0,0,0,0,0,0,0,0,0,0,0,0,0,0,0,0,0,0,0,0,0,0,0,0,0,0,0,0,1955,1938,1918,1902,1884,1868,1853,1839,1826,1813,1801,1788,1775,1761,1748,1723,1701,1665,1655,1656,1644,1633,1613,1602,1594,1585,7711,7636,7448,7365,7298,7233,7166,7097,7023,6949,6876,6807,6746,6694,6641,6602,6566,6537,6520,6512,6513,6519,6528,6533,6529,6517,6497,6470,6439,6407,6378,6353,6331,6315,6304,6297,6293,6290,6286,6280,6271,6259,6244,6227,6209,6190,6173,6160,6150,6144,6138,6132,6123,6111,6094,6074,6052,6028,6004,5979,5950,5917,5875,5821,5757,5684,5606,5528,5454,5387,5327,5274,5224,5176,5128,5077,5021,4959,4890,4816,4740,4666,4585,4520,4461,4410,4363,4321,4282,4243,4206,4169,4131,4091,4052,4014,3977,3942,3910,3881,3854,3830,3809,3789,3771,3752,3732,3710,3687,3662,3637,3615,3594,3576,3559,3543,3528,3513,3498,3484,3469,3455,3441,3426,3413,3400,3387,3377,3365,3351,3341,3325,3319,0,0,0,0,0,0,0,0,0,0,0,0,0,0,0,0,0,0,0
0,0,0,0,0,0,18816,18581,18207,17750,17195,16561,15700,14859,14942,12310,10164,9834,9542,9327,9157,8523,8421,8333,8356,0,0,0,0,0,0,0,0,0,0,0,0,0,0,0,1703,1697,1680,1654,1650,1636,1632,1629,1627,1625,1625,1625,1625,1626,1628,1630,1633,1636,1639,1644,1649,1652,1654,1656,1658,1659,1660,1661,1662,1662,1663,1664,1665,1666,1668,1670,1672,1674,1677,1679,1682,1687,1689,1691,1690,0,0,0,0,0,0,0,2482,2476,2466,2462,2460,2460,2457,2454,2449,2445,2443,2444,2447,2441,2394,2401,0,0,2885,0,0,0,0,0,0,0,2362,2410,2413,2415,2404,2397,2370,2361,2348,2324,2293,2269,2251,2240,2232,2227,2221,2218,2216,2215,2214,2254,2259,2236,2239,2237,2246,2243,2240,2237,2239,2236,2221,2207,2144,1951,1939,1956,1951,1949,1948,1949,1952,1957,1965,1974,1985,2027,2052,2072,2088,2136,2141,2144,2166,2167,0,2104,2106,2112,2114,2126,2125,2137,2144,2152,2160,2167,2171,2175,2178,2180,2185,2188,2192,2195,2198,2200,2200,2199,2196,2194,2136,2136,2193,2194,2192,2197,2197,2197,2191,2188,2178,2168,2156,2141,2135,2136,2143,2156,2177,2208,2240,2276,2313,2350,2386,2419,2450,2475,2492,2499,2496,2484,2465,2444,2425,2410,2400,2395,2395,2400,2409,2421,2435,2450,2464,2478,2491,2503,2516,2530,2545,2562,2581,2603,2627,2652,2676,2785,2840,2828,2830,2825,2773,2760,2754,2747,2737,2723,2697,2677,2657,2641,2629,2624,0,2742,2765,2782,2793,2807,2808,2814,2819,2828,0,0,0,2202,2190,2185,2182,2180,0,0,0,0,0,0,0,0,0,0,0,0,0,0,0,0,0,0,0,0,0,0,0,0,0,0,0,0,0,0,0,0,0,0,646,645,644,644,644,643,643,643,643,642,642,642,642,642,643,643,643,642,642,642,642,642,642,642,642,642,642,642,642,642,642,642,642,642,642,642,642,642,642,642,642,642,643,643,643,643,643,643,643,643,643,642,642,643,643,643,643,643,643,643,642,642,642,642,642,642,641,641,641,641,641,640,640,0,3255,3230,3234,3221,3223,3224,3230,3208,3220,0,0,0,3072,3023,2975,2936,2899,2865,2829,2792,2756,2723,2694,2672,2656,2644,2636,2632,2634,0,0,0,0,0,0,0,0,0,0,0,0,0,0,0,0,0,0,0,0,0,0,0,0,2351,2340,2155,2113,2091,2068,2041,2022,2001,1972,1945,1923,1904,1885,1868,1851,1836,1822,1808,1794,1781,1767,1753,1732,1716,1674,1663,1663,1652,1639,1618,1606,1596,1588,1581,1574,1572,7346,7266,7213,7163,7108,7052,6990,6928,6866,6809,6757,6717,6666,6631,6595,6562,6540,6528,6524,6528,6533,6538,6534,6522,6500,6469,6434,6399,6365,6337,6312,6294,6283,6278,6277,6277,6275,6271,6263,6251,6235,6216,6196,6175,6156,6141,6131,6124,6119,6114,6106,6096,6082,6066,6048,6029,6009,5987,5961,5930,5889,5836,5772,5698,5619,5541,5466,5398,5336,5280,5228,5178,5128,5075,5019,4956,4887,4814,4738,4665,4584,4520,4463,4413,4367,4326,4287,4250,4213,4176,4138,4098,4058,4018,3979,3943,3910,3880,3853,3828,3806,3786,3767,3747,3727,3705,3682,3657,3634,3611,3590,3572,3555,3539,3523,3508,3493,3478,3464,3449,3434,3419,3405,3392,3379,3368,3356,3341,3325,3307,3286,3262,3247,3229,0,0,0,0,0,0,0,0,0,0,0,0,0,0,0,0
0,0,0,0,0,19415,19104,18920,18646,18311,17906,17456,16847,16288,15833,14139,0,10572,10353,10305,10070,0,0,0,0,0,0,0,0,0,0,0,0,0,0,0,0,0,0,1846,1693,1687,1679,1665,1652,1637,1633,1630,1627,1625,1624,1624,1624,1625,1626,1628,1630,1632,1635,1638,1641,1643,1644,1646,1647,1648,1649,1651,1652,1654,1656,1658,1661,1664,1667,1670,1673,1676,1679,1682,1686,1690,1693,1694,1692,0,0,0,0,0,2518,2515,2481,2467,2463,2458,2454,2451,2447,2441,2436,2430,2426,2422,2422,2435,2417,0,0,2104,2062,0,0,0,0,0,2231,2254,2333,2397,2400,2400,2379,2344,2335,2327,2314,2288,2256,2235,2223,2216,2211,2210,2206,2204,2203,2202,2203,2251,2232,2233,2233,2234,2233,2222,2217,2225,2230,2228,2217,2204,2151,0,1948,1944,1942,1940,1939,1940,1944,1949,1957,1967,1978,2005,2027,2060,2100,2120,2123,2144,2127,2117,2121,2097,2104,2105,2105,2114,2116,2127,2135,2143,2152,2160,2166,2171,2175,2179,2187,2191,2196,2200,2204,2206,2206,2205,2202,2199,2197,2196,2195,2191,2194,2195,2194,2192,2183,2179,2165,2154,2142,2131,2126,2128,2135,2149,2171,2201,2236,2274,2314,2353,2390,2425,2455,2480,2497,2504,2501,2488,2469,2446,2426,2409,2396,2388,2385,2387,2394,2404,2416,2430,2444,2459,2472,2485,2498,2511,2524,2538,2553,2570,2587,2603,2616,2544,2535,2533,2540,2557,2640,2651,2709,2706,2701,2689,2659,2637,2616,2596,2580,2569,2530,2541,2511,2802,2798,2812,2774,2785,2796,2814,0,0,2224,2206,2195,2188,2184,2181,2180,0,0,0,0,0,0,0,0,0,0,0,0,0,0,0,0,0,0,0,0,0,0,0,0,0,0,0,0,0,0,0,0,0,0,644,644,644,643,643,643,643,643,642,642,642,642,643,643,643,642,642,642,642,642,642,642,642,642,642,642,642,642,642,642,642,642,642,642,641,641,642,642,642,642,642,642,643,643,643,643,643,643,643,643,643,643,643,643,643,643,643,643,643,643,642,642,642,642,642,642,641,641,641,641,640,640,0,0,3244,3240,3223,3220,3215,3208,3200,3197,3151,0,0,2936,2971,2900,2881,2847,2819,2789,2757,2726,2695,2667,2648,2632,2621,2614,2611,2608,0,0,0,0,0,0,0,0,0,0,0,0,0,0,0,0,0,0,0,0,0,0,2348,2342,2335,2331,2137,2103,2085,2062,2042,2022,2000,1973,1948,1925,1904,1884,1865,1847,1830,1815,1800,1786,1773,1759,1745,1725,1709,1686,1673,1659,1646,1633,1615,1602,1592,1584,1577,1572,1567,7280,7188,7147,7111,7069,7025,6973,6922,6871,6824,6782,6757,6702,6673,6635,6594,6567,6549,6540,6539,6542,6547,6542,6528,6505,6470,6432,6393,6357,6327,6300,6280,6268,6264,6265,6268,6270,6268,6261,6249,6233,6213,6191,6170,6150,6134,6123,6115,6108,6102,6093,6083,6070,6057,6043,6028,6012,5994,5972,5943,5904,5851,5786,5712,5633,5554,5479,5409,5346,5287,5232,5179,5127,5073,5016,4953,4885,4812,4737,4660,4588,4524,4468,4418,4372,4330,4292,4254,4218,4181,4143,4104,4063,4023,3983,3947,3913,3882,3854,3829,3806,3785,3764,3744,3723,3701,3678,3654,3631,3608,3588,3569,3551,3535,3519,3504,3489,3474,3459,3444,3428,3413,3399,3385,3372,3360,3348,3333,3317,3299,3279,3256,3238,3211,3185,3164,3146,3130,3115,3103,3090,3079,3068,3051,3033,0,0,0,0,0
0,0,0,0,0,19564,19401,19263,19066,18828,18548,18239,17835,17480,17040,17054,0,0,11373,10632,10419,0,0,0,0,0,0,0,0,0,0,0,0,0,0,0,0,0,1858,1846,1828,1817,1810,1663,1652,1639,1634,1631,1628,1625,1624,1623,1623,1624,1625,1626,1627,1629,1631,1633,1635,1636,1636,1637,1638,1639,1640,1642,1644,1647,1650,1653,1658,1662,1666,1671,1675,1679,1683,1687,1690,1694,1697,1697,1692,0,0,0,0,0,2517,2483,2472,2464,2460,2451,2445,2440,2434,2428,2421,2414,2407,2400,2401,2239,2235,2019,2016,2026,2022,2016,2014,2013,2014,2019,2027,2053,2119,2143,2166,2182,2249,2305,2327,2301,2288,2295,2216,2194,2188,2186,2185,2187,2185,2185,2186,2186,2136,2221,2224,2225,2226,2228,2112,2149,2213,2219,2221,2221,2216,2208,2166,0,1943,1937,1936,1934,1933,1935,1938,1944,1952,1962,1974,2007,2023,2051,2081,2095,2105,2123,2123,2116,2090,2088,2090,2092,2092,2102,2106,2116,2124,2133,2143,2151,2159,2164,2169,2174,2186,2192,2222,2230,2209,2210,2210,2210,2207,2202,2200,2193,2195,2193,2191,2192,2189,2186,2173,2171,2151,2140,2129,2121,2118,2121,2129,2145,2167,2198,2234,2274,2315,2355,2393,2427,2457,2480,2496,2502,2499,2485,2466,2443,2421,2403,2389,2378,2373,2372,2375,2383,2394,2407,2422,2437,2452,2466,2480,2492,2504,2515,2527,2538,2548,2555,2558,2518,2504,2497,2497,2509,2531,2589,2603,2698,2661,2652,2612,2590,2570,2549,2531,2517,2474,2463,2471,2468,2766,2717,2721,2755,2776,0,2452,0,2227,2210,2199,2190,2184,2181,2179,0,0,0,0,0,0,0,0,0,0,0,0,0,0,0,0,0,0,0,0,0,0,0,0,0,0,0,0,0,0,0,0,0,0,644,644,644,643,643,643,643,643,643,643,642,642,643,643,642,642,642,642,642,642,642,642,642,642,642,642,642,642,642,642,642,642,642,641,641,641,641,641,642,642,642,642,642,642,643,643,643,643,643,643,643,643,643,643,643,643,643,643,643,643,643,642,642,642,642,642,642,641,641,641,640,0,0,0,0,3245,3226,3219,3209,3202,3196,3172,0,0,0,0,2848,2852,2815,2804,2782,2757,2730,2702,2673,2645,2627,2612,2601,2596,2594,2598,0,0,0,0,0,0,0,0,0,0,0,0,0,0,0,0,0,0,0,0,0,2337,2329,2320,2321,2310,2318,2096,2079,2059,2039,2019,1997,1972,1947,1924,1902,1881,1861,1842,1824,1808,1793,1779,1765,1751,1737,1719,1703,1685,1670,1656,1642,1628,1611,1598,1587,1579,1572,1566,1563,0,7133,7104,7087,7057,7026,6981,6939,6897,6858,6824,6818,6753,6734,6692,6638,6604,6579,6564,6558,6557,6565,6557,6542,6517,6477,6435,6394,6356,6327,6297,6276,6263,6259,6261,6266,6269,6269,6264,6254,6238,6219,6198,6176,6156,6140,6127,6117,6107,6096,6084,6072,6059,6047,6037,6026,6015,6002,5984,5957,5919,5867,5802,5728,5649,5570,5494,5423,5357,5296,5238,5182,5128,5072,5015,4953,4886,4815,4742,4667,4597,4533,4476,4425,4377,4334,4294,4256,4219,4183,4145,4106,4066,4026,3988,3951,3917,3886,3858,3832,3808,3785,3763,3741,3720,3698,3675,3651,3628,3606,3585,3566,3548,3531,3515,3500,3485,3470,3454,3439,3423,3408,3393,3380,3367,3354,3342,3328,3312,3294,3274,3252,3232,3208,3184,3164,3145,3129,3114,3100,3084,3070,3056,3039,3015,2997,2979,2967,2960,0
0,0,0,0,0,19854,19672,19565,19419,19248,19058,18859,18611,18395,18296,18183,19212,19102,0,0,0,0,0,0,0,0,0,0,0,0,0,0,0,0,0,0,0,0,1860,1847,1828,1816,1809,1660,1646,1639,1635,1631,1628,1626,1624,1623,1623,1623,1624,1624,1625,1627,1628,1629,1630,1630,1630,1630,1631,1631,1633,1635,1638,1641,1645,1650,1656,1661,1668,1673,1679,1684,1688,1692,1695,1698,1701,1700,0,0,0,0,0,0,2515,2514,2490,2461,2456,2442,2435,2429,2422,2415,2407,2400,2393,2384,2388,0,0,2019,2016,2014,2012,2008,2008,2008,2011,2016,2023,2038,2047,2055,2062,2079,2084,2085,2086,2092,2099,2116,2138,2148,2148,2150,2153,2162,2160,2163,2165,2167,2110,2208,2211,2036,2041,2052,2088,2115,2135,2203,2221,2221,2208,2199,2167,0,1938,1935,1933,1931,1930,1932,1935,1941,1949,1960,1972,2005,2017,2047,2064,2077,2087,2085,2084,2080,2091,2071,2074,2077,2082,2090,2095,2104,2112,2122,2131,2140,2147,2153,2158,2163,2183,2189,2220,2228,2208,2210,2210,2210,2207,2201,2199,2192,2192,2189,2186,2187,2184,2178,2160,2157,2137,2126,2117,2112,2111,2115,2125,2142,2165,2197,2233,2274,2316,2356,2393,2426,2454,2475,2489,2494,2490,2476,2457,2434,2412,2393,2377,2365,2357,2353,2354,2359,2369,2381,2397,2413,2430,2446,2460,2473,2484,2493,2501,2507,2511,2511,2506,2481,2469,2462,2462,2470,2485,2487,2497,2506,2640,2629,2560,2539,2522,2504,2488,2474,2448,2441,2445,2444,2444,2450,2757,2760,2450,2427,2467,2365,2230,2217,2204,2191,2183,2179,2176,0,0,0,0,0,0,0,0,0,0,0,0,0,0,0,0,0,0,0,0,0,0,0,0,0,0,0,0,0,0,0,0,0,0,645,644,644,644,643,643,643,643,643,643,643,643,642,642,642,642,642,642,642,642,642,642,642,642,642,642,642,642,642,642,642,642,641,641,641,641,641,641,642,642,642,642,642,642,642,642,643,643,643,643,643,643,643,643,643,643,643,643,643,643,643,642,642,642,642,642,642,642,641,641,641,641,0,0,0,0,3229,3216,3207,3199,3191,0,0,0,0,0,0,2816,2797,2780,2762,2740,2715,2689,2660,2627,2611,2596,2585,2582,2581,2581,0,0,0,0,0,0,0,0,0,0,0,0,0,0,0,0,0,0,0,0,2321,2318,2313,2302,2355,2156,2104,2087,2070,2052,2033,2013,1992,1968,1944,1921,1899,1878,1856,1836,1819,1803,1787,1773,1759,1745,1732,1715,1700,1683,1668,1653,1639,1624,1608,1594,1583,1573,1566,1561,1558,1553,7020,7092,7094,7076,7057,7016,6980,6943,6910,6881,6906,6814,6814,6767,6694,6652,6620,6599,6587,6582,6595,6584,6565,6539,6491,6491,6401,6363,6337,6306,6282,6267,6262,6263,6268,6272,6273,6270,6262,6249,6232,6213,6193,6175,6159,6144,6131,6116,6099,6082,6064,6050,6038,6030,6024,6018,6009,5995,5971,5935,5884,5819,5745,5667,5588,5512,5439,5371,5307,5246,5188,5131,5075,5017,4956,4890,4822,4751,4679,4610,4546,4487,4434,4382,4337,4295,4256,4218,4181,4144,4105,4066,4027,3990,3955,3922,3891,3863,3836,3811,3786,3763,3740,3717,3695,3672,3650,3627,3605,3584,3564,3546,3529,3512,3496,3481,3466,3451,3435,3419,3404,3389,3376,3363,3350,3338,3324,3308,3291,3272,3251,3230,3208,3185,3165,3146,3129,3113,3099,3083,3068,3053,3036,3014,2996,2980,2968,2961,2955
0,0,0,0,0,19896,19873,19777,19656,19522,19386,19257,19113,18990,18937,18873,19375,19281,0,0,0,0,0,0,0,0,0,0,0,0,0,0,0,0,0,0,0,0,1865,1852,1677,1675,1669,1655,1644,1639,1635,1631,1628,1626,1624,1623,1623,1623,1623,1623,1624,1625,1626,1626,1626,1626,1626,1626,1626,1627,1628,1631,1634,1638,1643,1649,1656,1663,1670,1677,1684,1689,1694,1698,1701,1704,1706,1708,0,0,0,0,0,0,2501,2495,2484,2457,2455,2433,2425,2418,2411,2404,2396,2390,2383,2369,2144,2002,1998,2006,2004,2002,2000,1999,2000,2002,2006,2010,2016,2027,2033,2039,2045,2052,2056,2059,2064,2068,2075,2086,2099,2107,2110,2114,2119,2135,2132,2137,2141,2089,2083,2051,2042,2034,2035,2041,2063,2082,2098,2117,2214,2212,2193,2183,2158,1964,1942,1936,1933,1931,1930,1932,1935,1941,1949,1960,1971,1996,2015,2031,2054,2062,2069,2068,2057,2080,2076,2060,2063,2066,2071,2077,2083,2090,2098,2107,2116,2124,2131,2137,2141,2091,2191,2025,2209,2217,2222,2224,2225,2205,2201,2193,2189,2185,2186,2180,2176,2182,2175,2166,2144,2128,2123,2114,2107,2103,2105,2111,2122,2140,2164,2196,2233,2273,2315,2355,2391,2422,2447,2466,2478,2481,2476,2463,2443,2421,2399,2380,2363,2350,2339,2333,2331,2334,2342,2354,2369,2387,2405,2423,2439,2453,2464,2471,2476,2478,2476,2471,2459,2441,2431,2425,2426,2432,2443,2448,2458,2468,2465,2476,2494,2490,2477,2463,2451,2440,2425,2420,2424,2425,2428,2433,2431,2422,2417,2413,2394,2357,2272,2231,2212,2194,2182,2177,2175,0,0,0,0,0,0,0,0,0,0,0,0,0,0,0,0,0,0,0,0,0,0,0,0,0,0,0,0,0,0,0,0,0,648,645,645,644,644,644,643,643,643,643,643,643,643,642,642,642,642,642,642,642,642,642,642,642,642,642,642,642,642,642,642,642,642,641,641,641,641,641,641,641,642,642,642,642,642,642,642,642,642,643,643,643,643,643,643,643,643,643,643,643,643,643,642,642,642,642,642,642,642,642,641,642,641,0,0,0,0,0,0,0,0,0,0,0,0,0,0,0,0,2121,2108,2107,2106,2105,2105,0,2614,2601,2584,2573,2572,2573,0,0,0,0,0,0,0,0,0,0,0,0,0,0,0,0,0,0,2383,2347,2324,2312,2305,2296,2350,2142,2125,2092,2076,2059,2042,2024,2005,1984,1961,1938,1915,1894,1872,1851,1833,1815,1799,1784,1770,1756,1743,1729,1713,1698,1682,1667,1652,1637,1620,1604,1589,1577,1568,1560,1555,1551,1548,0,7102,7129,7119,7114,7069,7038,7161,7126,7089,7016,7002,6908,6856,6753,6705,6668,6641,6624,6615,6638,6621,6596,6566,6541,6516,6458,6414,6355,6321,6294,6276,6268,6267,6270,6274,6276,6275,6270,6261,6249,6234,6218,6203,6187,6172,6154,6134,6110,6086,6063,6045,6032,6026,6023,6020,6016,6005,5985,5950,5900,5836,5763,5685,5607,5530,5456,5385,5319,5256,5196,5137,5080,5021,4961,4898,4832,4764,4695,4626,4561,4500,4444,4387,4339,4295,4254,4215,4178,4141,4103,4065,4027,3991,3957,3925,3895,3867,3840,3813,3788,3763,3739,3716,3694,3671,3649,3627,3605,3584,3564,3545,3527,3510,3494,3479,3463,3448,3432,3417,3401,3387,3373,3360,3348,3336,3322,3307,3290,3272,3252,3231,3210,3188,3168,3149,3132,3115,3100,3083,3068,3051,3034,3015,2998,2982,2971,2963,2959
0,0,0,0,0,19808,19865,19859,19745,19625,19516,19428,19349,19290,19277,19244,18449,18565,0,0,0,0,0,0,0,0,0,0,0,0,0,0,0,0,1729,0,0,0,1869,1659,1666,1666,1659,1648,1641,1636,1633,1630,1627,1625,1624,1623,1622,1622,1622,1622,1623,1623,1624,1624,1624,1624,1624,1624,1624,1625,1627,1629,1633,1638,1643,1650,1658,1666,1674,1682,1690,1696,1700,1704,1706,1708,1710,1712,0,0,0,0,0,2542,2473,2467,2458,2449,2434,2424,2416,2408,2401,2394,2388,2382,2377,2366,2081,1996,1992,1994,1992,1991,1990,1990,1991,1994,1998,2003,2008,2015,2020,2025,2029,2034,2037,2039,2043,2046,2050,2058,2066,2072,2076,2081,2086,2093,2103,2109,2114,2118,2062,2042,2035,2027,2024,2026,2036,2047,2056,2067,2194,2186,2182,2170,2147,1953,1945,1938,1934,1932,1931,1933,1937,1943,1951,1960,1970,1994,2005,2025,2041,2048,2052,2043,2043,2052,2046,2048,2051,2054,2058,2064,2069,2075,2082,2090,2097,2104,2110,2115,2063,2059,2025,2020,2015,2014,2200,2203,2204,2202,2198,2179,2175,2173,2174,2166,2161,2151,2142,2134,2128,2116,2109,2102,2097,2096,2099,2106,2119,2137,2162,2194,2231,2271,2313,2352,2386,2415,2438,2455,2465,2467,2460,2447,2427,2405,2384,2364,2347,2332,2319,2310,2306,2308,2314,2325,2341,2360,2380,2399,2418,2433,2444,2450,2452,2451,2445,2436,2415,2401,2392,2389,2391,2397,2407,2415,2424,2433,2435,2436,2452,2449,2441,2431,2422,2415,2407,2405,2409,2412,2415,2420,2419,2414,2410,2404,2382,2343,2294,2249,2223,2196,2182,2176,2174,0,0,0,0,0,0,0,0,0,0,0,0,0,0,0,0,0,0,0,0,0,0,0,0,0,0,0,0,0,0,0,0,0,647,645,645,644,644,644,643,643,643,643,643,643,643,642,642,642,642,642,642,642,642,642,642,642,642,642,642,642,642,642,642,642,642,642,641,641,641,641,641,641,642,642,642,642,642,642,642,642,642,642,643,643,643,643,643,643,643,643,643,643,643,643,642,642,642,642,642,642,642,642,642,642,642,642,0,0,0,0,0,0,0,0,0,0,0,0,0,2115,2104,2103,2104,2103,2102,2100,2099,2095,2095,2094,2568,2565,2561,0,0,0,0,0,0,0,0,0,0,0,0,0,0,0,0,2347,2360,2343,2340,2376,2373,2365,2358,2163,2132,2121,2096,2079,2063,2047,2030,2013,1994,1974,1953,1931,1909,1888,1868,1848,1831,1814,1798,1783,1769,1755,1742,1729,1713,1698,1682,1667,1652,1636,1617,1600,1583,1571,1561,1553,1547,1544,1540,1533,7261,7183,7177,7187,7289,7261,7227,7224,7188,7104,7097,6999,6948,6895,6841,6789,6741,6697,6655,6689,6660,6626,6588,6560,6518,6472,6426,6370,6333,6303,6282,6271,6267,6268,6271,6275,6276,6276,6272,6265,6257,6246,6235,6221,6205,6184,6158,6128,6097,6068,6046,6031,6025,6024,6024,6023,6015,5996,5963,5914,5851,5779,5702,5624,5547,5471,5398,5329,5265,5203,5144,5086,5027,4968,4907,4844,4779,4711,4643,4576,4513,4454,4388,4340,4294,4252,4213,4176,4139,4102,4064,4027,3992,3959,3928,3899,3871,3844,3817,3791,3765,3740,3717,3695,3673,3651,3629,3607,3586,3565,3546,3527,3510,3493,3477,3462,3446,3430,3415,3399,3385,3371,3359,3347,3335,3322,3307,3291,3273,3254,3234,3214,3193,3174,3155,3137,3120,3103,3086,3070,3053,3036,3018,3001,2987,2976,2968,2964
0,0,0,0,0,20035,19891,19804,19684,19565,19468,19408,19377,19372,19412,19424,19719,21290,0,0,0,0,0,0,0,0,0,0,0,0,0,0,0,0,0,0,1660,1659,1649,1653,1651,1651,1647,1640,1635,1632,1629,1627,1625,1624,1623,1622,1622,1621,1621,1621,1621,1622,1622,1623,1623,1623,1623,1623,1624,1625,1627,1630,1634,1639,1646,1653,1661,1670,1680,1688,1696,1702,1707,1710,1711,1712,1714,1715,0,0,0,0,2488,2476,2464,2456,2448,2437,2424,2414,2405,2397,2390,2385,2380,2375,2374,2119,1994,1988,1984,1984,1981,1980,1980,1980,1982,1985,1990,1994,1999,2004,2008,2012,2015,2018,2021,2023,2025,2027,2030,2035,2040,2044,2048,2053,2058,2060,2074,2081,2087,2091,2094,2031,2024,2016,2010,2007,2009,2013,2017,2022,1988,1991,1993,2157,0,1948,1988,1939,1935,1933,1933,1935,1938,1944,1952,1961,1980,1990,2000,2012,2022,2027,2030,2029,2030,2031,2033,2035,2038,2041,2044,2048,2053,2058,2063,2069,2075,2080,2085,2089,2037,2034,2015,2012,2010,2010,2170,2012,2176,2175,2173,2159,2156,2154,2147,2148,2142,2133,2125,2117,2111,2101,2095,2090,2087,2087,2092,2100,2114,2132,2158,2189,2226,2266,2309,2346,2379,2406,2427,2442,2450,2450,2443,2429,2409,2388,2366,2346,2328,2311,2296,2284,2279,2279,2285,2296,2313,2334,2354,2376,2397,2414,2427,2431,2432,2428,2419,2407,2377,2364,2357,2356,2360,2367,2377,2386,2396,2406,2410,2413,2421,2420,2414,2409,2403,2400,2397,2398,2403,2407,2410,2414,2414,2412,2409,2406,2388,2356,2317,2266,2234,2195,2180,2175,0,0,0,0,0,0,0,0,0,0,0,0,0,0,0,0,0,0,0,0,0,0,0,0,0,0,0,0,0,0,0,0,649,647,647,646,645,645,644,644,644,643,643,643,643,643,642,642,642,642,642,642,642,642,642,642,642,643,643,643,643,643,643,642,642,642,642,642,642,641,641,641,641,642,642,642,642,642,642,642,642,642,642,642,643,643,643,643,643,643,643,643,643,643,643,642,642,642,642,642,642,642,642,642,642,642,643,643,0,0,0,0,0,0,0,0,0,0,0,0,2108,2102,2101,2099,2099,2097,2096,2094,2093,2090,2089,2089,2088,0,2521,0,0,0,0,0,0,0,0,0,0,0,0,0,0,2374,2326,2352,2319,2312,2304,2368,2372,0,2138,2128,2115,2101,2080,2065,2049,2034,2018,2002,1984,1965,1944,1923,1903,1883,1864,1846,1829,1813,1798,1783,1770,1757,1744,1731,1715,1698,1683,1669,1653,1637,1616,1596,1576,1564,1553,1546,1540,1536,1532,1528,7220,7391,7387,7262,7349,7318,7282,7257,7219,7154,7127,7053,7006,7005,6971,6937,6770,6898,6677,6720,6681,6638,6591,6552,6508,6463,6419,6371,6334,6303,6279,6265,6259,6259,6263,6268,6273,6277,6279,6278,6277,6272,6265,6255,6239,6216,6185,6151,6113,6079,6053,6036,6029,6027,6028,6028,6021,6004,5972,5924,5862,5791,5715,5637,5558,5481,5407,5337,5271,5209,5150,5091,5033,4975,4916,4856,4793,4726,4658,4590,4523,4460,4399,4343,4295,4253,4214,4177,4141,4104,4067,4030,3995,3962,3931,3902,3874,3847,3821,3794,3768,3744,3721,3699,3678,3656,3634,3612,3590,3569,3548,3529,3511,3494,3477,3461,3445,3429,3413,3398,3383,3370,3358,3346,3334,3322,3308,3293,3276,3258,3238,3219,3199,3180,3162,3145,3127,3110,3092,3074,3057,3040,3023,3007,2994,2983,2976,2972
0,0,0,0,0,19792,19756,19643,19510,19384,19293,19253,19405,19567,19794,19973,21066,0,0,0,0,0,0,0,0,0,0,0,0,0,0,0,1626,1620,1621,1621,1631,1631,1644,1638,1639,1638,1636,1632,1628,1626,1624,1623,1622,1621,1621,1621,1620,1620,1620,1620,1620,1621,1621,1622,1622,1622,1623,1624,1625,1627,1629,1633,1637,1643,1649,1657,1666,1676,1686,1695,1703,1709,1714,1717,1715,1716,1717,1725,0,0,0,2477,2473,2471,2453,2443,2433,2423,2410,2400,2392,2385,2378,2375,2372,2368,2346,2050,1973,1979,1975,1974,1972,1971,1970,1971,1973,1977,1981,1985,1989,1993,1997,2000,2002,2005,2007,2008,2010,2012,2014,2016,2020,2023,2026,2030,2035,2038,2048,2055,2060,2063,2065,2060,2009,2000,1992,1985,1981,1980,1981,1983,1966,1968,1970,1955,1973,1952,1946,1936,1933,1932,1932,1934,1938,1944,1950,1958,1967,1985,1994,2001,2009,2011,2013,2014,2015,2016,2018,2020,2023,2026,2028,2031,2034,2037,2041,2045,2049,2053,2056,2060,2063,2013,2004,2003,2004,2005,2007,2011,2145,2145,2144,2133,2132,2131,2125,2124,2119,2111,2102,2096,2090,2083,2078,2075,2075,2077,2083,2092,2105,2123,2149,2180,2217,2257,2302,2339,2370,2396,2415,2428,2434,2433,2425,2411,2391,2369,2347,2326,2307,2287,2269,2254,2246,2247,2254,2265,2285,2307,2329,2353,2378,2397,2412,2415,2416,2411,2402,2351,2344,2333,2329,2329,2335,2343,2354,2365,2375,2385,2391,2395,2401,2401,2399,2396,2394,2395,2395,2399,2405,2411,2412,2416,2416,2415,2416,2418,2406,2380,2347,2282,2257,0,0,0,0,0,0,0,0,0,0,0,0,0,0,0,0,0,0,0,0,0,0,0,0,0,0,0,0,0,0,0,0,0,0,648,647,646,646,645,645,645,644,644,644,643,643,643,643,643,642,642,642,642,642,642,642,642,642,642,643,643,643,643,643,643,643,642,642,642,642,642,642,642,642,642,642,642,642,642,642,642,642,642,642,642,642,642,643,643,643,643,643,643,643,643,643,643,643,642,642,642,642,642,642,642,642,643,643,643,643,643,0,0,0,0,2068,2073,2083,2096,2098,2106,2106,2106,2100,2099,2096,2095,2094,2092,2089,2087,2085,2083,2083,2083,2083,2086,0,0,2556,2549,2540,2535,0,0,0,0,0,0,0,0,2405,2344,2325,2320,2300,2300,2277,2357,2368,2163,2126,2114,2099,2084,2066,2051,2036,2022,2007,1992,1975,1957,1937,1917,1897,1878,1860,1843,1827,1812,1798,1784,1771,1759,1746,1734,1720,1698,1685,1670,1656,1636,1616,1593,1568,1555,1545,1537,1532,1528,1525,1522,7428,7443,7432,7319,7327,7311,7299,7267,7224,7166,7126,7064,7019,7003,6972,6942,6921,6892,6848,6629,6582,6627,6574,6528,6482,6439,6397,6355,6319,6289,6265,6250,6243,6243,6248,6255,6264,6273,6280,6286,6292,6293,6291,6284,6269,6246,6214,6176,6134,6095,6065,6045,6034,6031,6030,6029,6022,6005,5974,5927,5867,5796,5721,5643,5564,5486,5411,5340,5275,5213,5154,5096,5039,4983,4926,4867,4806,4740,4671,4601,4532,4465,4402,4344,4296,4254,4216,4181,4146,4110,4074,4037,4001,3967,3935,3905,3878,3851,3825,3799,3773,3749,3727,3706,3685,3664,3642,3619,3597,3574,3553,3533,3514,3496,3479,3462,3445,3429,3412,3397,3382,3369,3356,3345,3333,3321,3308,3294,3278,3260,3242,3223,3205,3187,3170,3153,3135,3117,3099,3081,3063,3047,3030,3016,3003,2992,2985,2981
0,0,0,0,0,19649,19569,19427,19272,19132,19035,18986,19362,19979,20525,0,0,0,0,0,0,0,0,0,0,0,0,0,0,0,1622,1618,1616,1618,1627,1623,1631,1628,1629,1628,1628,1628,1626,1623,1621,1620,1619,1618,1618,1618,1619,1619,1619,1619,1619,1619,1619,1619,1620,1621,1622,1622,1623,1625,1626,1629,1632,1636,1641,1647,1654,1662,1672,1682,1692,1702,1710,1716,1721,1723,1728,1725,1727,0,0,2530,2502,2502,2459,2462,2442,2429,2416,2405,2395,2385,2377,2370,2364,2364,2363,2324,2205,0,1967,1971,1968,1966,1964,1963,1963,1963,1965,1968,1971,1975,1979,1982,1985,1987,1990,1992,1994,1995,1997,1998,1999,2001,2003,2005,2007,2010,2013,2016,2024,2029,2033,2035,2035,2030,2023,2019,1995,1988,1968,1951,1948,1933,1929,1930,1938,1936,1938,1937,1934,1929,1927,1927,1928,1930,1934,1939,1945,1952,1960,1974,1981,1987,1992,1995,1997,1998,1999,2000,2002,2004,2006,2008,2010,2012,2013,2015,2016,2018,2020,2023,2026,2029,2033,2037,2039,1994,1997,2000,2004,2011,2024,2082,2088,2103,2103,2102,2098,2096,2091,2084,2075,2070,2066,2061,2059,2058,2060,2064,2070,2080,2092,2110,2135,2166,2202,2244,2292,2329,2360,2384,2402,2413,2418,2416,2407,2392,2371,2349,2326,2305,2284,2261,2239,2218,2209,2211,2218,2231,2255,2281,2305,2332,2360,2382,2401,2402,2403,2383,2346,2316,2324,2312,2309,2309,2316,2326,2338,2349,2360,2370,2378,2383,2389,2391,2391,2392,2394,2397,2401,2407,2415,2422,2419,2424,2422,2422,2428,2439,2431,2412,2381,0,0,0,0,0,0,0,0,0,0,0,0,0,0,0,0,0,0,0,0,0,0,0,0,0,0,0,0,0,0,0,0,0,0,0,648,647,646,646,646,645,645,644,644,644,643,643,643,643,643,643,642,642,642,642,642,642,642,642,642,642,643,643,643,643,643,643,643,642,642,642,642,642,642,642,642,642,642,642,642,642,642,642,642,642,642,642,642,642,643,643,643,643,643,643,643,643,643,643,642,642,642,642,642,642,642,642,643,643,643,643,644,644,0,0,0,0,2068,2072,2084,2094,2100,2104,2104,2105,2100,2098,2094,2091,2089,2086,2083,2081,2078,2076,2075,2075,2076,2080,0,2587,2571,2561,2549,2544,2534,0,0,0,2511,0,2417,0,0,0,2300,2290,2278,2267,2252,2345,2170,2130,2116,2101,2085,2070,2054,2039,2026,2012,1998,1984,1968,1950,1931,1912,1893,1874,1857,1840,1825,1811,1797,1784,1772,1759,1747,1735,1721,1700,1686,1673,1659,1640,1620,1584,1557,1546,1536,1529,1523,1520,1517,1515,6998,7382,7376,7352,7347,7327,7304,7265,7216,7157,7108,7049,7005,6979,6949,6921,6895,6862,6815,6742,6675,6604,6546,6495,6448,6406,6367,6328,6296,6267,6244,6230,6224,6225,6233,6242,6255,6267,6279,6289,6302,6309,6312,6309,6298,6276,6244,6205,6159,6114,6081,6056,6041,6034,6030,6026,6017,6000,5970,5925,5866,5797,5721,5643,5564,5486,5412,5342,5277,5216,5158,5101,5046,4990,4935,4878,4818,4753,4683,4611,4540,4470,4405,4346,4298,4257,4221,4187,4153,4119,4083,4046,4009,3973,3940,3909,3881,3854,3828,3804,3778,3755,3734,3714,3694,3673,3651,3628,3605,3582,3560,3539,3520,3501,3483,3465,3447,3429,3412,3396,3381,3367,3354,3343,3331,3319,3307,3293,3278,3261,3244,3227,3209,3193,3176,3160,3142,3125,3106,3088,3071,3054,3039,3025,3013,3003,2996,2992
0,0,0,0,0,19492,19381,19210,19034,18877,18760,18698,18884,0,0,0,0,0,0,0,0,0,0,0,0,0,0,0,0,0,1617,1614,1608,1610,1611,1614,1618,1619,1619,1619,1619,1619,1618,1616,1615,1614,1614,1614,1615,1616,1616,1617,1617,1617,1618,1618,1618,1618,1619,1620,1621,1622,1624,1626,1628,1631,1635,1639,1644,1651,1658,1667,1677,1688,1698,1708,1716,1722,1727,1730,1733,0,0,0,0,2529,2500,2499,2464,2471,2436,2417,2401,2390,2380,2369,2362,2355,2349,2348,2334,2300,0,1972,1964,1965,1962,1960,1958,1957,1956,1957,1958,1960,1963,1966,1969,1924,1925,1927,1931,1979,1981,1982,1983,1985,1985,1986,1986,1988,1988,1990,1992,1994,2000,2004,2006,2006,2004,1999,1991,1989,1972,1932,1913,1904,1905,1908,1907,1909,1915,1917,1919,1919,1918,1917,1917,1917,1919,1921,1925,1930,1935,1941,1948,1957,1965,1970,1975,1977,1979,1980,1982,1983,1985,1986,1988,1989,1989,1990,1990,1989,1989,1989,1990,1992,1995,1999,2003,2009,2014,2020,2027,2033,2040,2047,2057,2060,2064,2073,2073,2075,2070,2068,2059,2052,2042,2039,2037,2036,2037,2038,2042,2047,2054,2063,2075,2090,2117,2147,2182,2227,2282,2318,2350,2372,2389,2398,2402,2400,2390,2374,2351,2330,2307,2286,2263,2236,2208,2179,2167,2170,2179,2195,2227,2258,2282,2312,2329,2354,2398,2392,2392,2422,2389,2320,2316,2300,2299,2297,2305,2315,2327,2339,2350,2362,2371,2377,2383,2388,2390,2395,2399,2405,2412,2421,2432,2440,2430,2433,0,0,2470,2488,2462,2446,2412,2409,0,0,0,0,0,0,0,0,0,0,0,0,0,0,0,0,0,0,0,0,0,0,0,0,0,0,0,0,0,0,0,0,0,0,648,646,646,646,645,645,645,644,644,644,643,643,643,643,643,643,642,642,642,642,642,642,642,642,642,642,642,643,643,643,643,643,642,642,642,642,642,642,642,642,642,642,642,642,642,642,642,642,642,642,642,642,642,642,643,643,643,643,643,643,643,643,643,643,642,642,642,642,642,642,642,643,643,643,643,643,644,644,0,0,0,2061,2069,2074,2084,2095,2100,2104,2106,2104,2099,2095,2092,2089,2086,2082,2078,2075,2071,2068,2067,2067,2068,2085,2627,2596,2582,2571,2559,2551,2539,0,0,2503,2483,2435,2397,2319,2301,2279,2266,2280,2266,2249,2204,2171,2146,2121,2105,2089,2074,2058,2043,2029,2016,2004,1991,1977,1961,1945,1926,1907,1888,1870,1853,1837,1822,1808,1795,1783,1770,1758,1746,1733,1716,1700,1687,1674,1661,1647,1639,1581,1548,1537,1528,1521,1516,1512,1510,1509,1512,7381,7365,7367,7357,7335,7306,7262,7209,7148,7092,7034,6986,6952,6919,6888,6858,6820,6771,6705,6639,6571,6512,6460,6414,6375,6337,6302,6272,6246,6226,6214,6210,6214,6224,6235,6250,6265,6279,6294,6313,6325,6333,6335,6328,6309,6277,6239,6187,6136,6098,6069,6048,6035,6027,6019,6007,5990,5960,5917,5860,5793,5719,5642,5563,5486,5412,5343,5279,5219,5162,5107,5052,4998,4944,4888,4829,4764,4694,4621,4548,4474,4408,4347,4300,4261,4226,4194,4162,4129,4094,4056,4017,3979,3944,3911,3882,3855,3830,3819,3780,3759,3740,3721,3702,3682,3661,3638,3614,3591,3569,3548,3528,3509,3490,3471,3451,3432,3413,3396,3380,3365,3352,3340,3329,3317,3304,3291,3276,3260,3244,3228,3211,3196,3180,3164,3148,3130,3112,3095,3078,3062,3047,3034,3022,3013,3006,3003
0,0,0,0,19805,19379,19236,19040,18847,18681,18527,18473,18637,0,0,0,0,0,0,0,0,0,0,0,0,0,0,0,0,0,1618,1608,1608,1608,1608,1609,1612,1612,1612,1612,1612,1612,1611,1610,1610,1610,1610,1611,1612,1613,1614,1615,1616,1616,1617,1617,1617,1618,1618,1620,1621,1623,1625,1627,1630,1633,1637,1642,1647,1654,1662,1671,1682,1693,1703,1713,1721,1727,1732,1735,1739,0,0,0,0,2494,2524,2506,2498,2448,2428,2419,2390,2378,2367,2355,2347,2340,2334,2326,2329,2270,0,1969,1962,1961,1958,1956,1953,1952,1951,1951,1952,1953,1955,1957,1913,1910,1910,1910,1913,1917,1966,1967,1968,1970,1970,1969,1969,1971,1968,1968,1968,1969,1973,1976,1977,1976,1972,1966,1957,1928,1925,1899,1892,1885,1884,1885,1886,1888,1893,1896,1898,1900,1901,1900,1901,1902,1904,1907,1911,1915,1921,1927,1933,1940,1947,1951,1955,1958,1960,1961,1963,1964,1965,1966,1966,1966,1966,1965,1964,1962,1961,1960,1960,1962,1965,1970,1976,1982,1989,1997,2005,2011,2018,2024,2037,2036,2038,2043,2045,2023,2017,2012,2008,2005,2005,2004,2005,2008,2011,2016,2021,2028,2035,2043,2052,2065,2093,2124,2158,2205,2273,2310,2341,2362,2377,2386,2389,2386,2376,2359,2335,2314,2291,2272,2248,2217,2182,2140,2122,2127,2138,2157,2202,2241,2266,2296,2314,2348,2389,2363,2363,2395,2340,2325,2315,2309,2307,2290,2299,2309,2321,2333,2344,2357,2368,2374,2382,2388,2392,2400,2407,2416,2427,2439,2452,2464,2412,2737,2757,2782,0,2511,2492,2476,2453,0,0,0,0,0,0,0,0,0,0,0,0,0,0,0,0,0,0,0,0,0,0,0,0,0,0,0,0,0,0,0,0,0,0,0,0,646,646,645,645,645,644,644,644,643,643,643,643,643,643,643,642,642,642,642,642,642,642,642,642,642,642,642,642,642,642,642,642,642,642,642,642,642,642,642,642,642,642,642,642,642,642,642,642,642,642,642,642,643,643,643,643,643,643,643,643,643,643,643,642,642,642,642,642,642,642,643,643,643,643,643,644,644,0,0,0,2063,2071,2078,2086,2096,2103,2104,2105,2105,2101,2096,2092,2088,2084,2080,2075,2071,2066,2062,2060,2060,2061,0,2632,2603,2592,2582,2570,2559,0,0,0,0,2467,0,2311,2300,2282,2248,2243,2257,2216,2198,2179,2151,2130,2109,2092,2077,2062,2048,2034,2021,2008,1996,1984,1971,1956,1940,1922,1903,1885,1866,1849,1833,1818,1805,1792,1780,1768,1756,1743,1729,1714,1699,1686,1673,1661,1649,1640,1562,1539,1528,1520,1513,1508,1505,1503,1502,0,7381,7378,7362,7364,7344,7311,7267,7214,7153,7093,7033,6980,6938,6898,6861,6823,6780,6729,6667,6604,6541,6484,6434,6391,6353,6314,6285,6259,6236,6220,6210,6209,6215,6229,6239,6256,6272,6288,6305,6333,6349,6362,6368,6365,6350,6317,6280,6218,6156,6115,6080,6055,6036,6023,6009,5994,5975,5947,5906,5853,5789,5718,5642,5565,5489,5415,5347,5283,5224,5167,5113,5059,5007,4953,4898,4839,4774,4703,4629,4556,4470,4407,4347,4302,4264,4230,4200,4169,4137,4102,4063,4023,3983,3945,3911,3881,3853,3828,3803,3781,3762,3743,3726,3708,3690,3669,3647,3624,3601,3579,3558,3538,3519,3499,3479,3459,3438,3417,3398,3381,3365,3351,3338,3326,3313,3300,3287,3272,3257,3242,3226,3211,3196,3181,3166,3150,3133,3116,3099,3083,3068,3053,3041,3030,3021,3015,3011
0,0,0,0,19579,19323,19136,18925,18725,18562,18347,18175,0,0,0,0,0,0,0,0,0,0,0,0,0,0,0,0,0,1636,1619,1608,1607,1606,1606,1606,1607,1607,1607,1607,1607,1607,1606,1606,1606,1606,1607,1608,1609,1611,1612,1614,1615,1615,1616,1616,1617,1617,1618,1619,1621,1623,1625,1627,1631,1634,1639,1644,1649,1656,1665,1674,1685,1696,1707,1716,1725,1731,1736,1740,1747,1754,1759,1760,0,0,0,0,1862,1861,0,2416,2409,2370,2359,2344,2337,2330,2324,2321,0,0,1964,1962,1960,1959,1956,1953,1951,1949,1948,1947,1947,1948,1949,1950,1903,1899,1897,1895,1895,1898,1902,1950,1951,1953,1951,1949,1947,1950,1944,1943,1941,1940,1943,1945,1946,1943,1939,1932,1922,1901,1889,1879,1872,1866,1864,1865,1865,1867,1871,1874,1877,1879,1880,1881,1882,1883,1885,1888,1892,1896,1902,1908,1914,1920,1926,1930,1933,1936,1938,1940,1941,1941,1942,1941,1941,1940,1939,1937,1936,1934,1932,1931,1932,1934,1938,1944,1951,1958,1966,1975,1983,1988,1995,2000,2011,2010,2009,1998,1990,1983,1993,1965,1961,1961,1967,1969,1972,1977,1983,1991,1998,2006,2012,2018,2025,2033,2068,2098,2128,2143,2153,2161,2358,2375,2370,2377,2380,2377,2363,2348,2322,2326,2305,2286,2006,2000,2020,2047,2064,2059,2085,2115,2036,2033,2038,2060,2273,0,2388,2395,2401,2392,2383,2374,2341,2330,2307,2254,0,2298,2309,2327,2336,2351,0,0,0,2394,2400,2407,2414,2428,2441,2456,2470,2481,2715,2712,2732,2747,2703,2548,2567,2522,2513,0,0,0,0,0,0,0,0,0,0,0,0,0,0,0,0,0,0,0,574,574,575,0,0,0,0,0,0,0,0,0,0,0,0,0,0,0,645,645,645,644,644,644,643,643,643,643,643,643,643,642,642,642,642,642,642,642,642,642,642,642,642,642,642,642,642,642,642,642,642,642,642,642,642,642,642,642,642,642,642,642,642,642,642,642,642,642,642,643,643,643,643,643,643,643,643,643,643,643,643,642,642,642,642,642,642,642,643,643,643,643,644,644,0,0,0,0,2075,2083,2091,2100,2106,2107,2107,2106,2102,2098,2093,2088,2084,2079,2074,2069,2064,2058,2055,2057,2059,0,2636,2625,2600,2591,2579,2572,0,0,0,0,2458,2398,2303,2282,2260,2244,2229,2212,2194,2175,2155,2132,2113,2094,2079,2065,2051,2038,2025,2013,2001,1989,1977,1964,1950,1935,1918,1899,1881,1862,1845,1829,1815,1802,1789,1778,1765,1753,1739,1725,1710,1696,1683,1671,1660,1650,1639,1563,1529,1519,1511,1505,1501,1498,1496,1495,6971,7366,7366,7362,7359,7344,7317,7279,7229,7172,7113,7051,6994,6942,6892,6845,6799,6750,6697,6639,6580,6523,6471,6424,6384,6350,6313,6287,6264,6246,6232,6227,6228,6235,6251,6257,6276,6291,6308,6327,6367,6385,6402,6412,6412,6400,6363,6330,6250,6172,6127,6089,6058,6035,6017,5997,5978,5958,5930,5892,5843,5784,5717,5645,5570,5495,5422,5354,5290,5231,5175,5121,5069,5016,4963,4907,4847,4782,4711,4636,4561,4475,4410,4350,4304,4267,4234,4204,4174,4142,4106,4066,4024,3983,3944,3909,3878,3851,3826,3802,3781,3762,3745,3728,3712,3695,3676,3655,3634,3612,3591,3571,3552,3533,3513,3492,3470,3448,3426,3404,3385,3367,3352,3338,3324,3310,3297,3282,3268,3253,3238,3223,3208,3194,3180,3165,3149,3133,3117,3100,3085,3070,3056,3044,3033,3025,3019,3016
0,0,0,0,19707,19355,19204,19033,18893,18778,18504,18043,0,0,0,0,0,0,0,0,0,0,0,0,0,0,0,0,0,1637,1620,1609,1607,1605,1604,1603,1603,1603,1603,1603,1603,1603,1603,1603,1603,1604,1605,1606,1608,1609,1611,1612,1614,1614,1615,1616,1616,1617,1618,1619,1621,1623,1625,1628,1631,1635,1639,1645,1651,1658,1666,1676,1686,1697,1708,1718,1726,1732,1738,1742,1749,1754,1760,1768,0,0,1836,1838,1823,1822,1819,1810,1810,1807,2397,2336,2327,2318,2270,0,0,1967,1967,1962,1959,1958,1955,1952,1949,1947,1945,1944,1944,1943,1943,1943,1895,1889,1884,1880,1877,1878,1880,1883,1930,1932,1929,1924,1922,1927,1916,1914,1909,1907,1909,1911,1912,1909,1906,1900,1892,1878,1868,1860,1854,1849,1847,1847,1846,1848,1850,1852,1855,1856,1858,1859,1860,1861,1863,1867,1871,1875,1881,1886,1893,1898,1905,1908,1910,1912,1914,1915,1916,1916,1915,1914,1913,1912,1910,1908,1907,1905,1904,1904,1905,1908,1912,1919,1927,1935,1943,1953,1961,1964,1971,1974,1955,1971,1968,1963,1944,1937,1932,1929,1926,1927,1931,1935,1940,1947,1954,1963,1972,1980,1987,1990,1993,1997,2046,2079,2084,2098,1913,2161,2159,2373,2358,2366,2354,2351,2344,2326,2306,1903,1935,1931,1957,1974,1992,2011,2022,2031,2042,2061,2007,2008,2016,2034,0,0,0,0,0,0,2414,2382,2364,0,0,0,0,0,0,0,0,0,0,0,0,0,0,2425,2422,2436,2454,2471,2414,2415,2670,2706,2739,2753,2714,2592,0,2500,2528,0,0,0,0,0,0,0,0,0,0,0,0,0,0,0,566,0,568,569,578,571,575,575,0,0,0,0,0,0,0,0,0,0,0,0,0,0,645,645,645,644,644,644,643,643,643,643,643,642,642,642,642,642,642,642,642,642,642,642,642,642,642,642,642,642,642,642,642,642,642,642,642,642,642,642,642,642,642,642,642,642,642,642,642,642,642,642,643,643,643,643,643,643,643,643,643,643,643,643,643,642,642,642,642,642,642,642,643,643,643,643,643,643,0,0,0,0,2077,2086,2092,2103,2108,2108,2109,2107,2104,2099,2095,2090,2085,2080,2074,2069,2063,2056,2052,2049,0,0,0,2630,2619,2597,2598,0,0,0,0,0,0,2335,2289,2271,2255,2234,2215,2197,2177,2155,2134,2113,2095,2079,2065,2052,2040,2028,2017,2005,1994,1983,1971,1958,1944,1929,1913,1896,1878,1859,1841,1825,1811,1798,1786,1774,1762,1749,1735,1720,1706,1691,1679,1668,1658,1649,1634,1597,1519,1510,1503,1497,1493,1490,1488,1488,0,7339,7343,7345,7347,7339,7321,7291,7251,7201,7145,7085,7023,6963,6903,6845,6790,6735,6680,6625,6572,6521,6475,6434,6398,6360,6333,6311,6293,6278,6269,6265,6268,6275,6319,6317,6309,6323,6339,6357,6417,6435,6453,6464,6466,6454,6410,6385,6191,6175,6131,6091,6057,6030,6009,5981,5958,5936,5910,5875,5831,5778,5716,5649,5577,5504,5432,5364,5300,5242,5187,5133,5081,5028,4973,4916,4855,4789,4716,4640,4562,4481,4413,4353,4306,4268,4235,4205,4174,4142,4105,4065,4022,3981,3942,3907,3876,3848,3823,3800,3780,3761,3745,3729,3713,3697,3680,3661,3642,3623,3604,3585,3567,3548,3528,3508,3485,3462,3437,3414,3392,3372,3354,3338,3323,3308,3293,3278,3263,3248,3233,3219,3204,3190,3176,3162,3146,3130,3114,3098,3083,3069,3055,3043,3033,3025,3019,3017
