0,0,0,0,0,0,0,0,0,0,0,0,0,0,7060,7055,7128,7150,7189,6901,6957,7011,7066,7122,7179,7243,7316,7399,7501,7626,7767,7923,8086,8251,8416,8584,8764,9003,9198,9352,9600,9812,10050,10066,10323,10527,10618,11085,11406,11665,12067,12319,12211,12088,11984,11921,11914,11971,12090,12267,12490,12747,13024,13316,13623,13935,14252,14576,14900,15203,15483,15738,15976,16210,16458,16732,17039,17380,17753,18152,18585,19059,19588,20190,20888,21692,22638,23779,25178,26923,29177,32150,35793,40580,45729,51289,55778,59211,61623,63244,64415,64900,65161,65302,65364,65390,65477,0,0,0,0,0,0,0,0,0,0,0,0,0,0,0,0,0,0,0,0,0,0,0,0,0,0,0,0,0,0,0,0,0,0,0,0,0,0,0,0,0,0,0,0,0,0,0,0,0,0,0,0,0,0,0,0,0,0,6461,6074,5957,5891,5828,5734,5589,5549,5521,0,0,0,0,0,0,0,0,0,2181,2184,2187,2191,2196,2204,2214,2228,2243,2262,2283,2307,2332,2358,2384,2409,2432,2453,2471,2487,2501,2516,2531,2548,2568,2590,2614,2639,2666,2695,2729,2768,2813,2864,2920,2982,3049,3114,3174,3221,3262,0,12728,12536,12512,12484,12447,12403,12353,12302,12257,12220,12192,12171,12155,12143,12133,12129,12130,12139,12159,12193,12242,12309,12397,12510,12660,12859,13121,13452,13854,14330,14881,15518,16281,17243,18498,20148,22340,25265,29169,34742,42044,48513,54020,58152,60981,62805,63876,64510,64939,0,0,0,0,0,0,0,0,0,0,0,0,0,0,0,0,0,0,0,0,0,0,0,0,0,0,0,0,0,0,0,0,0,0,0,0,0,0,0,0,0,0,0,0,0,0,0,0,0,0,0,0,0,654,652,652,652,652,651,651,651,651,650,650,650,650,650,650,0,0,0,649,649,649,649,649,648,648,648,648,648,648,648,648,649,650,0,0,0,0,0,0,0,0,0,0,652,652,651,651,652,652,653,654,656,657,0,662,662,661,661,659,658,657,656,654,653,653,652,652,651,651,0,0,0,0,0,0,0,0,0,0,0,0,0,0,0,0,0,0,0,0,0,0,0,0,0,0,0,0,0,0,0,0,0,0,0,0,0,0,0,0,0,0,0,0,0,0,0,0,0,0,0,0,0,0,0,0,0,0,0,0,0,0,0,0,0,0,0,0,0,0,0,0,0,0,0,0,0,0,0,0,0,0,0,0,0,0,0,0,0,0,0,0,0,0,0,0,0,0,0,0,0,0,0,0,0,0,0,0,0,65530,65534,65534,65534,65533,65533,65533,65317,0,0,0,0,0,0,0,0,0,64460,64133,63308,62068,61917,61933,60378,58514,56446,54196,51773,49276,46810,44473,42310,40343,38623,37173,35994,35054,34295,33649,33038,32393,31700,30970,30184,29294,28248,27025,25700,24401,23223,22215,21361,20600,19890,19219,18593,18026,17528,17099,16734,16423,16153,15908,15671,15428,15178,14922,14662,14401,14139,13879,13623,13376,13143,12930,12736,12556,12385,12219,12059,11908,11767,11636,11509,11379,11240,11084,10908,10706,10502,10290,10084,9894,9717,9555,9439,9349,9278,9221,9174,9132,9086,9043,8997,8945,8882,8803,8774,8548,8404,8127,7965,7783,7664,7569,7489,7422,7362,7311,7262,7220,7186,7150,7131,7001,6907,6861,6792,6734,6687,6702,6661,6628,6610,6603
0,0,0,0,0,0,0,0,0,0,0,0,0,6917,7034,7034,7091,7123,7168,7245,6953,7003,7055,7108,7165,7229,7306,7398,7508,7638,7781,7932,8085,8235,8384,8532,8687,8873,9037,9184,9385,9574,9777,9870,9966,10172,10392,10717,10988,11347,11634,11813,11796,11758,11730,11731,11778,11879,12035,12243,12493,12773,13072,13384,13705,14027,14345,14657,14954,15224,15467,15689,15905,16135,16395,16697,17043,17428,17841,18269,18717,19190,19703,20275,20926,21666,22520,23534,24761,26289,28321,31145,34569,39432,44511,50384,54950,58560,61198,63336,64309,64856,65133,65236,65319,65424,0,0,0,0,0,0,0,0,0,0,0,0,0,0,0,0,0,0,0,0,0,0,0,0,0,0,0,0,0,0,0,0,0,0,0,0,0,0,0,0,0,0,0,0,0,0,0,0,0,0,0,0,0,0,0,0,0,0,0,5634,6019,5900,5840,5790,5720,5534,5486,5455,5382,0,0,0,0,0,0,0,0,2189,2193,2195,2199,2204,2211,2222,2235,2251,2269,2289,2312,2336,2361,2387,2412,2435,2455,2472,2488,2501,2514,2529,2545,2563,2584,2608,2633,2659,2689,2723,2761,2806,2856,2911,2972,3039,3106,3167,3216,3263,0,12376,12305,12313,12316,12311,12296,12273,12247,12224,12209,12200,12197,12195,12194,12194,12194,12197,12205,12220,12246,12284,12337,12407,12499,12624,12795,13024,13322,13692,14136,14655,15260,15986,16901,18093,19657,21731,24505,28241,33435,40187,46933,52850,57361,60474,62510,63713,64360,64829,0,0,0,0,0,0,0,0,0,0,0,0,0,0,0,0,0,0,0,0,0,0,0,0,0,0,0,0,0,0,0,0,0,0,0,0,0,0,0,0,0,0,0,0,0,0,0,0,0,0,0,0,0,654,652,652,651,651,651,651,650,650,650,650,650,650,650,650,0,0,0,649,649,649,649,649,648,648,648,648,648,648,648,648,648,0,0,0,0,0,0,0,0,0,0,653,652,652,651,651,652,652,654,655,656,658,660,661,661,660,660,658,657,656,655,653,652,652,651,651,651,650,0,0,0,0,0,0,0,0,0,0,0,0,0,0,0,0,0,0,0,0,0,0,0,0,0,0,0,0,0,0,0,0,0,0,0,0,0,0,0,0,0,0,0,0,0,0,0,0,0,0,0,0,0,0,0,0,0,0,0,0,0,0,0,0,0,0,0,0,0,0,0,0,0,0,0,0,0,0,0,0,0,0,0,0,0,0,0,0,0,0,0,0,0,0,0,0,0,0,0,0,0,0,0,0,0,0,0,0,0,0,65534,65534,65532,65532,0,0,0,0,0,0,0,0,0,0,0,0,64682,63592,63303,63202,62063,62113,60597,58753,56695,54461,52082,49610,47137,44742,42492,40446,38662,37165,35948,34973,34185,33518,32898,32260,31583,30877,30119,29257,28242,27043,25734,24439,23256,22237,21369,20594,19870,19179,18530,17937,17414,16969,16598,16293,16039,15817,15602,15379,15141,14892,14631,14363,14090,13817,13554,13305,13080,12881,12706,12545,12390,12233,12075,11919,11767,11622,11483,11344,11200,11047,10880,10687,10504,10309,10116,9936,9759,9583,9471,9385,9316,9261,9214,9170,9117,9069,9020,8966,8905,8831,8778,8601,8478,8024,7918,7746,7636,7556,7487,7432,7380,7337,7288,7250,7215,7149,7098,7029,6944,6860,6847,6846,6771,6709,6672,6636,6554,6482
0,0,0,0,0,0,0,0,0,0,0,0,0,6846,7004,7013,7054,7090,7143,7226,6950,7000,7050,7103,7161,7230,7315,7417,7537,7672,7814,7959,8099,8235,8367,8498,8634,8786,8928,9066,9236,9407,9586,9715,9849,10036,10267,10548,10805,11097,11332,11492,11535,11556,11580,11625,11707,11836,12015,12241,12506,12800,13114,13440,13773,14101,14417,14713,14983,15219,15429,15624,15828,16060,16337,16670,17052,17476,17921,18371,18827,19294,19787,20327,20932,21608,22371,23260,24323,25642,27483,30247,33453,38559,43469,49773,54268,58057,61361,63036,64092,64707,64933,65207,65313,0,0,0,0,0,0,0,0,0,0,0,0,0,0,0,0,0,0,0,0,0,0,0,0,0,0,0,0,0,0,0,0,0,0,0,0,0,0,0,0,0,0,0,0,0,0,0,0,0,0,0,0,0,0,0,0,0,0,0,5846,5994,5867,5825,5766,5654,5572,5476,5416,5380,5280,0,0,0,0,0,0,0,0,2197,2202,2204,2207,2211,2219,2229,2242,2258,2275,2295,2317,2340,2364,2389,2414,2436,2456,2474,2488,2501,2513,2526,2541,2559,2580,2603,2628,2655,2684,2718,2756,2799,2846,2899,2958,3022,3087,3146,3196,3256,0,12114,12030,12075,12116,12149,12170,12178,12181,12184,12192,12205,12221,12237,12250,12260,12267,12274,12282,12293,12312,12340,12378,12431,12504,12604,12747,12944,13207,13541,13949,14430,14992,15669,16518,17620,19063,20972,23536,27015,31811,38152,45113,51420,56324,59758,62074,63461,64168,64671,64918,0,64922,0,0,0,0,0,0,0,0,0,0,0,0,0,0,0,0,0,0,0,0,0,0,0,0,0,0,0,0,0,0,0,0,0,0,0,0,0,0,0,0,0,0,0,0,0,0,0,0,0,0,654,652,651,651,651,650,650,650,650,649,649,649,649,649,649,0,0,0,649,649,649,649,648,648,648,648,648,648,648,648,648,648,0,0,0,0,0,0,0,0,0,652,652,652,651,651,651,652,653,654,655,656,658,659,660,660,660,659,658,656,655,654,653,652,651,651,651,651,650,0,0,0,0,0,0,0,0,0,0,0,0,0,0,0,0,0,0,0,0,0,0,0,0,0,0,0,0,0,0,0,0,0,0,0,0,0,0,0,0,0,0,0,0,0,0,0,0,0,0,0,0,0,0,0,0,0,0,0,0,0,0,0,0,0,0,0,0,0,0,0,0,0,0,0,0,0,0,0,0,0,0,0,0,0,0,0,0,0,0,0,0,0,0,0,0,0,0,0,0,0,0,0,0,0,0,0,0,0,0,65535,65535,65534,65534,65534,65534,0,0,0,0,0,0,0,0,0,0,0,63667,64036,63493,62389,62435,61019,59265,57276,55091,52733,50223,47677,45161,42769,40601,38725,37164,35902,34893,34078,33393,32765,32131,31471,30789,30062,29237,28260,27100,25820,24538,23354,22325,21438,20643,19895,19178,18495,17865,17308,16836,16449,16142,15897,15690,15495,15288,15063,14819,14559,14285,14004,13723,13457,13215,13006,12830,12682,12548,12416,12275,12125,11969,11811,11655,11503,11352,11201,11045,10883,10692,10532,10353,10176,10009,9827,9622,9512,9428,9361,9306,9258,9210,9145,9089,9032,8973,8908,8833,8769,8611,8501,8010,7920,7737,7625,7557,7501,7459,7415,7379,7326,7348,7282,7209,7148,7074,6993,6915,6841,6781,6760,6761,6618,6580,6555,6530
0,0,0,0,0,0,0,0,0,0,0,0,0,6895,6973,6977,7020,7059,6831,6902,6956,7008,7060,7116,7179,7254,7347,7459,7587,7725,7864,8000,8127,8249,8367,8484,8606,8737,8865,8993,9142,9297,9459,9598,9744,9925,10140,10391,10636,10895,11114,11278,11368,11433,11494,11569,11674,11819,12009,12243,12515,12816,13140,13478,13820,14152,14465,14748,14996,15208,15395,15576,15775,16015,16312,16673,17087,17541,18011,18475,18934,19393,19868,20378,20941,21556,22231,22994,23884,24970,26613,29400,32436,37904,42432,47013,52494,0,0,0,0,0,0,0,0,0,0,0,0,0,0,0,0,0,0,0,0,0,0,0,0,0,0,0,0,0,0,0,0,0,0,0,0,0,0,0,0,0,0,0,0,0,0,0,0,0,0,0,0,0,0,0,0,0,0,0,0,0,0,0,0,0,0,0,0,5597,5896,5773,5718,5624,5474,5416,5340,5300,5233,0,0,0,0,0,0,0,0,2211,2211,2213,2215,2219,2226,2236,2248,2264,2281,2301,2321,2343,2367,2391,2415,2437,2457,2474,2488,2500,2512,2525,2539,2556,2577,2600,2626,2653,2682,2714,2750,2790,2835,2883,2937,2995,3056,3111,3159,3245,11409,11758,11737,11823,11908,11981,12038,12080,12111,12140,12171,12205,12239,12271,12298,12319,12334,12346,12355,12364,12376,12395,12422,12461,12515,12593,12708,12873,13100,13395,13760,14194,14705,15321,16091,17084,18381,20096,22408,25572,29937,35922,43086,49774,55063,58828,61485,63100,63871,64496,64751,0,65102,0,0,0,0,0,0,0,0,0,0,0,0,0,0,0,0,0,0,0,0,0,0,0,0,0,0,0,0,0,0,0,0,0,0,0,0,0,0,0,0,0,0,0,0,0,0,0,0,0,0,655,653,651,651,650,650,650,649,649,649,649,649,649,649,649,0,0,0,649,649,649,649,648,648,648,648,648,648,648,648,648,648,648,0,0,0,0,0,0,0,651,651,651,651,651,651,651,652,652,654,655,656,658,659,660,659,659,658,657,656,654,653,652,651,651,651,651,651,651,651,0,0,0,0,0,0,0,0,0,0,0,0,0,0,0,0,0,0,0,0,0,0,0,0,0,0,0,0,0,0,0,0,0,0,0,0,0,0,0,0,0,0,0,0,0,0,0,0,0,0,0,0,0,0,0,0,0,0,0,0,0,0,0,0,0,0,0,0,0,0,0,0,0,0,0,0,0,0,0,0,0,0,0,0,0,0,0,0,0,0,0,0,0,0,0,0,0,0,0,0,0,0,0,0,0,0,0,0,65535,65535,65535,65535,65535,65534,65534,65533,0,0,0,0,65507,0,0,0,65382,65290,62355,64220,63768,62806,61416,61514,59900,58029,55932,53630,51072,48436,45773,43210,40889,38893,37246,35923,34866,34013,33300,32656,32018,31367,30706,30009,29222,28289,27174,25929,24665,23482,22441,21535,20719,19951,19211,18499,17835,17243,16742,16334,16016,15768,15566,15377,15179,14961,14723,14463,14189,13906,13626,13365,13136,12946,12795,12673,12564,12454,12329,12189,12035,11874,11710,11547,11385,11225,11066,10906,10704,10572,10411,10253,10106,9912,9645,9547,9463,9376,9303,9240,9182,9171,9104,9036,8966,8893,8811,8745,8576,8471,8499,7937,7875,7626,7573,7530,7671,7468,7439,7497,7430,7360,7284,7212,7135,7055,6982,6897,6829,6754,6700,6631,6596,6571,6582
0,0,0,0,0,0,0,0,0,0,0,0,0,6907,6965,6970,6976,7005,7043,6919,6980,7035,7091,7151,7221,7305,7406,7525,7656,7793,7927,8051,8166,8275,8381,8489,8601,8720,8838,8958,9092,9232,9379,9515,9660,9830,10029,10258,10493,10737,10956,11133,11257,11355,11444,11540,11659,11812,12006,12242,12515,12819,13150,13497,13847,14184,14494,14768,15003,15202,15379,15556,15759,16011,16327,16712,17152,17628,18116,18591,19054,19508,19971,20459,20985,21543,22130,22761,23460,24264,25698,28543,30858,0,0,0,0,0,0,0,0,0,0,0,0,0,0,0,0,0,0,0,0,0,0,0,0,0,0,0,0,0,0,0,0,0,0,0,0,0,0,0,0,0,0,0,0,0,0,0,0,0,0,0,0,0,0,0,0,0,0,0,0,0,0,0,0,0,0,0,0,0,0,0,6088,5951,5880,5752,5700,5537,5443,5364,5265,5221,5179,0,0,0,0,0,0,0,0,2221,2221,2222,2223,2226,2232,2242,2254,2269,2287,2305,2325,2347,2369,2392,2415,2437,2457,2474,2488,2500,2512,2524,2538,2556,2576,2600,2626,2653,2681,2711,2744,2781,2820,2864,2911,2962,3017,3063,3107,3209,11041,11191,11459,11585,11710,11821,11912,11983,12041,12092,12143,12195,12244,12289,12328,12358,12381,12397,12407,12415,12423,12435,12453,12481,12522,12582,12673,12808,12998,13251,13569,13952,14406,14956,15641,16520,17661,19168,21205,24011,27892,33530,40923,47981,53607,57664,60729,62625,63437,64152,64443,64848,64843,63762,0,0,0,0,0,0,0,0,0,0,0,0,0,0,0,0,0,0,0,0,0,0,0,0,0,0,0,0,0,0,0,0,0,0,0,0,0,0,0,0,0,0,0,0,0,0,0,0,0,0,653,651,650,650,650,649,649,649,648,648,648,648,648,648,0,0,0,649,649,649,649,648,648,648,648,647,647,648,648,648,648,648,0,0,0,0,650,650,650,651,651,651,651,651,651,651,651,652,653,654,656,658,659,659,659,658,657,656,655,654,653,652,651,651,651,651,651,651,652,0,0,0,0,0,0,0,0,0,0,0,0,0,0,0,0,0,0,0,0,0,0,0,0,0,0,0,0,0,0,0,0,0,0,0,0,0,0,0,0,0,0,0,0,0,0,0,0,0,0,0,0,0,0,0,0,0,0,0,0,0,0,0,0,0,0,0,0,0,0,0,0,0,0,0,0,0,0,0,0,0,0,0,0,0,0,0,0,0,0,0,0,0,0,0,0,0,0,0,0,0,0,0,0,0,0,0,65535,65535,65535,65535,65535,65535,65534,65534,65532,0,0,0,0,0,0,65460,65417,65347,64436,64775,64482,63970,63170,61989,62066,60618,58882,56882,54630,52083,49382,46585,43851,41360,39219,37458,36047,34923,34016,33260,32587,31933,31282,30634,29962,29210,28320,27248,26035,24785,23600,22544,21620,20791,20017,19271,18550,17871,17258,16733,16304,15966,15702,15488,15291,15088,14869,14632,14375,14105,13828,13556,13306,13092,12919,12787,12683,12589,12491,12376,12241,12090,11927,11758,11589,11420,11254,11091,10934,10792,10607,10458,10316,10186,9810,9697,9601,9714,9625,9515,9408,9303,9203,9120,9038,8954,8869,8778,8717,8509,8402,8016,7958,7692,7656,7611,7577,7555,7533,7513,7519,7490,7441,7430,7369,7306,7245,7052,6977,6907,6823,6765,6711,6656,6560,6514
0,0,0,0,0,0,0,0,0,0,0,0,0,6926,6966,6983,7128,7155,7183,6941,7017,7079,7142,7211,7289,7381,7488,7610,7740,7870,7994,8106,8208,8306,8403,8504,8611,8722,8834,8948,9071,9199,9332,9461,9598,9756,9940,10153,10381,10619,10841,11031,11180,11301,11410,11520,11649,11807,12001,12235,12507,12813,13149,13502,13859,14199,14507,14775,15004,15199,15376,15557,15768,16033,16366,16773,17232,17728,18230,18719,19191,19650,20113,20590,21091,21603,22111,22617,23122,23711,24874,0,0,0,0,0,0,0,0,0,0,0,0,0,0,0,0,0,0,0,0,0,0,0,0,0,0,0,0,0,0,0,0,0,0,0,0,0,0,0,0,0,0,0,0,0,0,0,0,0,0,0,0,0,0,0,0,0,0,0,0,0,0,0,0,0,0,0,0,0,0,0,0,0,0,5613,5606,5588,5803,5620,5461,5362,5084,5152,5008,4958,0,0,0,0,0,0,0,2237,2229,2229,2229,2232,2238,2247,2259,2274,2291,2310,2329,2349,2370,2392,2414,2436,2456,2473,2487,2499,2512,2524,2539,2557,2579,2603,2630,2656,2682,2710,2739,2771,2805,2842,2882,2924,2973,3011,3035,0,10922,11023,11231,11384,11538,11678,11796,11890,11968,12036,12102,12166,12226,12281,12328,12366,12395,12414,12425,12432,12437,12444,12458,12480,12513,12562,12635,12746,12904,13118,13390,13722,14121,14607,15212,15983,16974,18274,20026,22445,25790,31095,38822,46242,52073,56289,59813,61715,62567,63446,63664,64486,61244,54279,52374,52552,0,0,0,0,0,0,0,0,0,0,0,0,0,0,0,0,0,0,0,0,0,0,0,0,0,0,0,0,0,0,0,0,0,0,0,0,0,0,0,0,0,0,0,0,0,0,0,0,653,650,650,649,649,649,649,648,648,648,648,648,648,648,0,0,0,649,649,649,649,648,648,648,648,647,647,648,648,648,648,648,0,0,0,0,649,650,650,650,650,650,650,650,650,650,651,652,653,654,655,658,658,659,658,657,657,655,654,654,653,652,651,651,651,651,651,651,652,0,0,0,0,0,0,0,0,0,0,0,0,0,0,0,0,0,0,0,0,0,0,0,0,0,0,0,0,0,0,0,0,0,0,0,0,0,0,0,0,0,0,0,0,0,0,0,0,0,0,0,0,0,0,0,0,0,0,0,0,0,0,0,0,0,0,0,0,0,0,0,0,0,0,0,0,0,0,0,0,0,0,0,0,0,0,0,0,0,0,0,0,0,0,0,0,0,0,0,0,0,0,0,0,0,0,0,0,65535,65535,65535,65535,65535,65534,65533,65531,0,0,0,0,0,0,65429,65382,64479,64739,64786,64542,64124,63470,62493,62551,61280,59791,57826,55659,53155,50439,47550,44668,42004,39697,37797,36273,35060,34083,33273,32559,31878,31218,30574,29920,29194,28336,27300,26110,24867,23675,22605,21671,20843,20084,19361,18661,17997,17387,16852,16403,16039,15744,15497,15270,15045,14814,14572,14317,14057,13792,13534,13299,13097,12935,12810,12709,12616,12516,12398,12261,12109,11945,11776,11605,11433,11263,11097,10937,10803,10622,10477,10340,10216,10144,10061,9644,9749,9658,9554,9445,9335,9229,9133,9038,8941,8841,8739,8231,8408,8289,8019,7890,7752,7702,7657,7627,7608,7591,7571,7561,7526,7477,7442,7378,7313,7246,7152,7054,6910,6853,6804,6761,6751,6649,6585
0,0,0,0,0,0,0,0,0,0,0,0,0,6965,6993,7029,7158,7183,7201,6965,7067,7140,7211,7290,7378,7476,7586,7706,7829,7948,8059,8157,8247,8335,8425,8522,8625,8732,8840,8949,9064,9183,9305,9427,9556,9703,9876,10078,10300,10534,10759,10960,11124,11261,11384,11505,11640,11802,11997,12229,12499,12805,13141,13497,13855,14194,14497,14760,14985,15181,15363,15553,15776,16054,16404,16831,17308,17822,18344,18854,19348,19829,20313,20801,21300,21792,22254,22675,23033,23271,0,0,0,0,0,0,0,0,0,0,0,0,0,0,0,0,0,0,0,0,0,0,0,0,0,0,0,0,0,0,0,0,0,0,0,0,0,0,0,0,0,0,0,0,0,0,0,0,0,0,0,0,0,0,0,0,0,0,0,0,0,0,0,0,0,0,0,0,0,0,0,0,0,0,7201,7119,7484,0,5606,5664,5615,5352,5017,4985,4952,4932,0,0,0,0,0,0,0,2250,2236,2233,2233,2236,2242,2251,2263,2278,2295,2313,2332,2351,2371,2392,2413,2435,2455,2472,2486,2499,2512,2525,2541,2560,2584,2609,2637,2662,2686,2710,2735,2761,2789,2820,2852,2886,2934,2965,2961,0,10678,10862,11046,11215,11389,11548,11684,11793,11884,11962,12036,12107,12174,12235,12288,12332,12366,12387,12400,12405,12407,12413,12425,12447,12479,12525,12591,12688,12825,13008,13243,13532,13885,14317,14855,15533,16389,17493,18966,20984,23745,28779,36678,44950,50755,54812,58690,60242,61111,61557,62165,63185,60621,54244,57609,53886,0,0,0,0,0,0,0,0,0,0,0,0,0,0,0,0,0,0,0,0,0,0,0,0,0,0,0,0,0,0,0,0,0,0,0,0,0,0,0,0,0,0,0,0,0,0,0,0,649,650,650,649,649,649,648,648,648,648,648,648,648,648,0,0,0,650,650,650,649,649,648,648,648,647,647,648,648,648,648,648,0,646,647,648,649,649,650,650,650,650,650,650,650,650,650,651,652,653,655,657,658,658,658,657,656,655,654,653,653,652,652,651,651,651,652,652,652,0,0,0,0,0,0,0,0,0,0,0,0,0,0,0,0,0,0,0,0,0,0,0,0,0,0,0,0,0,0,0,0,0,0,0,0,0,0,0,0,0,0,0,0,0,0,0,0,0,0,0,0,0,0,0,0,0,0,0,0,0,0,0,0,0,0,0,0,0,0,0,0,0,0,0,0,0,0,0,0,0,0,0,0,0,0,0,0,0,0,0,0,0,0,0,0,0,0,0,0,0,0,0,0,0,0,0,0,65535,65535,65535,65535,65534,65532,65531,65529,0,0,0,0,0,0,65375,65329,64998,64895,64742,64657,64309,63763,62934,62919,61784,60370,58563,56495,54108,51427,48504,45516,42702,40233,38188,36543,35232,34181,33313,32553,31843,31168,30521,29873,29162,28325,27310,26135,24895,23696,22617,21684,20876,20156,19485,18840,18223,17644,17118,16655,16257,15913,15611,15331,15064,14806,14551,14296,14046,13797,13557,13336,13143,12982,12852,12739,12631,12516,12386,12241,12086,11922,11755,11587,11418,11249,11084,10924,10779,10612,10465,10328,10203,10112,10022,9882,9776,9684,9582,9473,9362,9253,9148,9040,8928,8811,8686,8470,8371,8241,8035,7912,7796,7738,7694,7664,7645,7627,7604,7581,7538,7484,7435,7369,7303,7237,7156,7053,6970,6914,6863,6818,6778,6705,6677
0,0,0,0,0,0,0,0,0,0,0,0,0,0,7054,7100,7092,7220,7225,7264,7130,7203,7289,7379,7476,7580,7689,7802,7914,8019,8114,8199,8277,8356,8441,8534,8635,8740,8845,8952,9062,9176,9291,9407,9531,9672,9838,10033,10251,10482,10708,10913,11086,11233,11365,11494,11637,11802,11999,12231,12498,12799,13130,13482,13835,14164,14456,14709,14926,15121,15308,15507,15742,16036,16405,16859,17359,17900,18451,19000,19539,20068,20605,21136,21668,22180,22642,23037,23332,0,0,0,0,0,0,0,0,0,0,0,0,0,0,0,0,0,0,0,0,0,0,0,0,0,0,0,0,0,0,0,0,0,0,0,0,0,0,0,0,0,0,0,0,0,0,0,0,0,0,0,0,0,0,0,0,0,0,0,0,0,0,0,0,0,0,0,0,0,0,0,0,0,0,0,6814,7216,7597,7631,7749,7749,5685,5202,4977,4957,4927,4926,0,0,0,0,0,0,0,2247,2237,2235,2236,2238,2244,2254,2266,2281,2298,2316,2334,2353,2372,2392,2411,2434,2453,2470,2485,2499,2513,2527,2543,2564,2590,2617,2647,2670,2691,2711,2731,2752,2773,2797,2822,2849,2900,2927,2911,10192,10533,10723,10899,11076,11261,11426,11568,11683,11778,11858,11934,12006,12074,12139,12197,12247,12285,12310,12324,12329,12331,12337,12351,12377,12416,12469,12540,12636,12765,12933,13144,13403,13722,14115,14603,15206,15948,16880,18097,19739,21937,27095,35401,42921,49803,53710,56007,58535,59140,59484,60298,61950,61617,55517,53999,52455,0,0,0,0,0,0,0,0,0,0,0,0,0,0,0,0,0,0,0,0,0,0,0,0,0,0,0,0,0,0,0,0,0,0,0,0,0,0,0,0,0,0,0,0,0,0,0,649,649,650,649,649,649,649,648,648,648,648,648,648,648,649,0,0,0,651,650,650,649,649,648,648,648,648,648,648,648,648,648,648,647,647,648,648,649,649,649,649,649,649,649,649,649,649,650,651,652,653,654,656,657,657,657,656,655,654,654,653,652,652,652,651,651,652,652,652,652,0,0,0,0,0,0,0,0,0,0,0,0,0,0,0,0,0,0,0,0,0,0,0,0,0,0,0,0,0,0,0,0,0,0,0,0,0,0,0,0,0,0,0,0,0,0,0,0,0,0,0,0,0,0,0,0,0,0,0,0,0,0,0,0,0,0,0,0,0,0,0,0,0,0,0,0,0,0,0,0,0,0,0,0,0,0,0,0,0,0,0,0,0,0,0,0,0,0,0,0,0,0,0,0,0,0,0,0,0,0,0,0,0,0,0,0,0,0,0,0,0,65439,65293,65220,65186,64760,64610,64537,64220,63733,63703,62960,61917,60573,58876,56904,54626,52034,49154,46141,43242,40663,38508,36766,35377,34266,33350,32553,31817,31126,30470,29819,29111,28280,27275,26105,24865,23664,22586,21667,20896,20236,19642,19082,18541,18018,17518,17046,16609,16200,15821,15467,15141,14843,14568,14306,14063,13829,13605,13393,13204,13040,12893,12758,12626,12489,12342,12188,12029,11868,11707,11546,11385,11223,11063,10906,10756,10593,10442,10298,10168,10066,9974,9862,9772,9687,9594,9494,9389,9282,9174,9061,8941,8815,8680,8495,8374,8238,8061,7938,7831,7766,7718,7685,7661,7637,7608,7573,7525,7468,7412,7348,7285,7224,7157,7080,7014,6965,6918,6876,6838,6763,6737
0,0,0,0,0,0,0,0,0,0,0,0,0,0,7212,7167,7150,7147,7245,7289,7178,7261,7358,7461,7568,7674,7781,7886,7985,8075,8155,8227,8294,8366,8446,8536,8634,8738,8843,8949,9058,9170,9283,9397,9519,9658,9821,10013,10229,10457,10681,10886,11063,11215,11354,11491,11640,11813,12014,12247,12512,12807,13128,13468,13807,14120,14391,14625,14826,15012,15198,15402,15647,15962,16358,16854,17388,17971,18572,19185,19804,20418,21053,21669,22277,22856,23370,23796,24097,0,0,0,0,0,0,0,0,0,0,0,0,0,0,0,0,0,0,0,0,0,0,0,0,0,0,0,0,0,0,0,0,0,0,0,0,0,0,0,0,0,0,0,0,0,0,0,0,0,0,0,0,0,0,0,0,0,0,0,0,0,0,0,0,0,0,0,0,0,0,0,0,0,0,0,7515,7309,7307,7696,7752,7737,0,5188,4961,4960,4935,4909,0,0,0,0,0,0,0,0,2238,2236,2237,2240,2246,2255,2268,2283,2300,2318,2336,2354,2371,2390,2408,2433,2453,2470,2485,2499,2514,2528,2544,2568,2597,2625,2658,2678,2694,2710,2725,2740,2756,2774,2792,2810,2838,2854,2862,10179,10477,10643,10805,10976,11158,11312,11448,11557,11645,11719,11788,11855,11922,11988,12051,12107,12152,12184,12202,12210,12214,12222,12241,12276,12327,12395,12482,12592,12727,12893,13094,13338,13635,14003,14454,15001,15647,16427,17405,18677,20275,23249,35200,44886,49715,53059,54420,55635,56038,56137,57161,60078,61251,59997,54720,50219,0,0,0,0,0,0,0,0,0,0,0,0,0,0,0,0,0,0,0,0,0,0,0,0,0,0,0,0,0,0,0,0,0,0,0,0,0,0,0,0,0,0,0,0,0,0,0,650,650,650,650,649,649,649,648,648,648,648,648,649,649,0,0,0,0,651,651,650,650,649,648,648,648,648,648,648,648,648,648,648,648,647,648,649,649,650,650,649,649,649,649,649,649,649,649,650,651,652,653,655,656,656,656,655,655,654,653,653,652,652,651,651,651,652,652,652,653,0,0,0,0,0,0,0,0,0,0,0,0,0,0,0,0,0,0,0,0,0,0,0,0,0,0,0,0,0,0,0,0,0,0,0,0,0,0,0,0,0,0,0,0,0,0,0,0,0,0,0,0,0,0,0,0,0,65479,65405,65312,65207,0,0,0,0,0,0,0,0,0,0,0,0,0,0,0,0,0,0,0,0,0,0,0,0,0,0,0,0,0,0,0,0,0,0,0,0,0,0,0,0,0,0,0,0,0,0,0,0,65534,65534,65533,65529,65527,65524,65517,65505,0,0,0,0,0,65114,64992,64952,64819,64333,64439,64209,63872,63378,62642,61617,60271,58599,56663,54464,51985,49222,46295,43429,40842,38657,36877,35453,34312,33369,32549,31793,31086,30416,29751,29031,28191,27180,26007,24766,23568,22501,21609,20887,20299,19796,19335,18891,18443,17983,17511,17033,16554,16088,15650,15257,14914,14611,14335,14095,13869,13655,13453,13261,13081,12913,12753,12596,12438,12276,12115,11958,11804,11652,11502,11352,11200,11048,10895,10742,10577,10418,10265,10127,10015,9921,9828,9751,9677,9598,9511,9417,9317,9212,9100,8980,8852,8714,8549,8415,8273,8103,7972,7864,7789,7733,7692,7659,7626,7588,7545,7492,7434,7377,7317,7258,7205,7150,7092,7039,6999,6962,6930,6899,6884,6811
0,0,0,0,0,0,0,0,0,0,0,0,0,7117,7069,7027,7019,7030,7075,7133,7207,7302,7411,7524,7639,7748,7852,7950,8037,8114,8182,8241,8300,8365,8440,8527,8623,8725,8830,8938,9049,9163,9278,9393,9517,9656,9820,10011,10225,10450,10671,10873,11050,11205,11348,11493,11651,11832,12041,12279,12546,12835,13141,13466,13786,14077,14322,14530,14706,14875,15052,15256,15511,15854,16290,16854,17438,18087,18762,19477,20221,20971,21766,22516,23246,23935,24548,25061,25428,0,0,0,0,0,0,0,0,0,0,0,0,0,0,0,0,0,0,0,0,0,0,0,0,0,0,0,0,0,0,0,0,0,0,0,0,0,0,0,0,0,0,0,0,0,0,0,0,0,0,0,0,0,0,0,0,0,0,0,0,0,0,0,0,0,0,0,0,0,0,0,0,0,0,7545,7336,7405,7392,7369,7363,7330,7323,7322,0,5416,5403,5416,0,0,0,0,0,0,0,0,0,2233,2237,2240,2247,2256,2269,2284,2301,2319,2336,2353,2370,2385,2400,0,6597,6652,0,0,2517,2529,2544,2568,2604,2632,2671,2685,2695,2706,2716,2727,2739,2751,2765,2778,2776,2785,2816,2814,10415,10619,10765,10919,11088,11214,11330,11421,11493,11550,11604,11661,11722,11787,11855,11919,11974,12015,12041,12055,12064,12078,12105,12151,12220,12310,12422,12554,12706,12880,13081,13317,13601,13951,14378,14893,15479,16167,17016,18126,19542,20505,34163,38932,44505,48317,50730,51349,51386,51614,53112,57911,60398,61173,60795,0,0,0,0,0,0,0,0,0,0,0,0,0,0,0,0,0,0,0,0,0,0,0,0,0,0,0,0,0,0,0,0,0,0,0,0,0,0,0,0,0,0,0,0,0,0,0,650,651,650,650,650,649,649,649,648,648,648,648,649,649,649,649,0,0,0,651,651,650,650,649,648,648,648,648,648,648,648,648,648,649,648,648,649,649,650,650,650,650,649,649,649,648,648,648,649,649,650,651,652,655,654,655,655,654,654,653,652,652,651,651,651,651,651,652,652,652,653,0,0,0,0,0,0,0,0,0,0,0,0,0,0,0,0,0,0,0,0,0,0,0,0,0,0,0,0,0,0,0,0,0,0,0,0,0,0,0,0,0,0,0,0,0,0,0,0,0,0,0,0,0,0,65510,65491,65455,65396,65308,65141,64848,64376,63764,63513,0,0,0,0,0,0,0,0,0,0,0,0,0,0,0,0,0,0,0,0,0,0,0,0,0,0,0,0,0,0,0,0,0,0,0,0,0,0,0,0,0,65535,65535,65535,65535,65534,65533,65532,65529,65526,65518,65505,65481,65441,65380,65289,65168,64961,64798,64596,64537,64343,64128,63873,63591,63206,62659,61872,60800,59380,57650,55682,53517,51156,48576,45856,43165,40703,38594,36855,35450,34315,33370,32539,31770,31045,30350,29658,28909,28041,27008,25823,24581,23392,22344,21486,20816,20299,19884,19524,19177,18809,18394,17930,17422,16882,16341,15833,15383,15000,14671,14374,14130,13903,13690,13485,13286,13091,12903,12721,12544,12371,12204,12045,11895,11752,11613,11475,11336,11195,11049,10899,10742,10570,10401,10237,10089,9968,9872,9788,9722,9660,9596,9525,9445,9357,9258,9151,9035,8910,8776,8624,8485,8336,8157,8013,7898,7810,7742,7689,7644,7600,7554,7504,7448,7391,7336,7281,7234,7180,7135,7090,7050,7019,6991,6966,6952,6930,6920
0,0,0,0,0,0,0,0,0,0,0,0,7447,7082,7058,7040,7035,7048,7090,7151,7232,7333,7448,7567,7688,7798,7900,7993,8071,8140,8197,8247,8298,8356,8426,8509,8603,8704,8810,8921,9036,9154,9273,9393,9520,9662,9827,10018,10231,10452,10668,10865,11039,11195,11342,11493,11660,11852,12072,12321,12593,12881,13170,13480,13782,14053,14270,14455,14602,14751,14918,15123,15392,15776,16270,16941,17594,18337,19116,19975,20902,21845,22878,23801,24681,25504,26245,26889,27399,29547,0,0,0,0,0,0,0,0,0,0,0,0,0,0,0,0,0,0,0,0,0,0,0,0,0,0,0,0,0,0,0,0,0,0,0,0,0,0,0,0,0,0,0,0,0,0,0,0,0,0,0,0,0,0,0,0,0,0,0,0,0,0,0,0,0,0,0,0,0,0,0,0,0,7249,7399,7482,7480,7455,7435,7399,7350,7207,7169,7028,6716,6606,6931,6979,7007,7048,7135,7153,7159,7115,0,0,0,0,0,0,0,0,0,0,0,0,0,6519,6522,6531,6560,6556,6559,0,0,0,0,0,0,0,2683,2689,2691,2697,2703,2711,2720,2729,2740,2751,2754,2762,2782,2756,0,10647,10781,10910,11062,11144,11229,11292,11339,11368,11399,11440,11491,11554,11625,11699,11765,11818,11855,11879,11897,11920,11958,12019,12108,12222,12361,12520,12689,12870,13070,13294,13560,13890,14297,14794,15344,15977,16746,17771,19107,20429,33205,36660,41380,44488,46082,45944,45527,45706,47592,54802,58880,60520,60085,0,0,0,0,0,0,0,0,0,0,0,0,0,0,0,0,0,0,0,0,0,0,0,0,0,0,0,0,0,0,0,0,0,0,0,0,0,0,0,0,0,0,0,0,0,0,0,650,651,651,650,650,649,649,649,648,648,648,648,649,649,649,649,0,0,0,651,650,650,649,649,648,648,648,648,648,648,648,648,649,649,649,0,650,650,650,650,650,650,649,649,648,648,648,648,648,649,649,650,650,0,653,653,653,653,653,652,652,651,651,651,651,651,651,651,652,652,652,0,0,0,0,0,0,0,0,0,0,0,0,0,0,0,0,0,0,0,0,0,0,0,0,0,0,0,0,0,0,0,0,0,0,0,0,0,0,0,0,0,0,0,0,0,0,0,0,0,0,0,0,0,65510,65496,65465,65409,65310,65147,64862,64386,63637,62584,60688,58132,0,0,0,0,0,0,0,0,0,0,0,0,0,0,0,0,0,0,0,0,0,0,0,0,0,0,0,0,0,0,0,0,0,0,0,0,65535,65535,65535,65535,65535,65535,65535,65534,65532,65530,65528,65525,65516,65501,65476,65433,65363,65253,65091,64842,64574,64289,64001,63734,63460,63207,62871,62500,62028,61391,60514,59364,57830,55996,53960,51818,49599,47269,44869,42491,40283,38356,36735,35400,34301,33369,32535,31751,30999,30265,29526,28727,27813,26744,25540,24294,23118,22093,21269,20645,20187,19845,19566,19302,19005,18636,18189,17669,17098,16517,15969,15488,15080,14733,14412,14163,13927,13705,13491,13281,13072,12867,12670,12483,12306,12142,11992,11855,11727,11602,11476,11346,11211,11068,10916,10753,10569,10389,10215,10057,9929,9830,9752,9692,9641,9590,9533,9468,9391,9301,9202,9092,8975,8846,8705,8566,8413,8212,8050,7926,7827,7746,7679,7621,7566,7512,7456,7400,7345,7292,7242,7194,7151,7112,7077,7047,7022,7001,6984,6970,6957,6952
0,0,0,0,0,0,0,0,0,0,0,0,7192,7079,7062,7048,7048,7064,7106,7169,7252,7355,7474,7593,7718,7829,7931,8023,8095,8159,8209,8251,8294,8346,8410,8489,8579,8679,8787,8902,9023,9147,9272,9397,9527,9672,9839,10029,10239,10455,10664,10855,11025,11179,11329,11485,11660,11862,12094,12356,12640,12929,13202,13238,14292,14539,14372,14423,14546,14680,14842,15052,15337,15777,16353,17190,17927,18797,19703,20752,21922,23108,24468,25571,26582,27511,28358,29130,29806,30848,36369,0,0,0,0,0,0,0,0,0,0,0,0,0,0,0,0,0,0,0,0,0,0,0,0,0,0,0,0,0,0,0,0,0,0,0,0,0,0,0,0,0,0,0,0,0,0,0,0,0,0,0,0,0,0,0,0,0,0,0,0,0,0,0,0,0,0,0,0,0,0,0,0,7551,7603,7592,7576,7562,7554,7491,7409,7267,7089,6957,6842,6835,6910,6981,7027,7085,7120,7133,7135,7121,7089,7024,6980,6919,6878,6839,6789,6734,6636,6630,6611,6583,6559,6533,6527,6524,6533,6526,6520,6517,0,0,0,0,0,0,2669,2684,2677,2680,2684,2691,2698,2708,2718,2728,2734,2742,2759,2740,10612,10728,10846,10952,11095,11112,11159,11187,11201,11192,11194,11214,11252,11310,11385,11467,11546,11613,11664,11700,11730,11764,11815,11890,11997,12133,12294,12471,12647,12823,13008,13208,13443,13740,14125,14618,15152,15760,16482,17468,18759,20274,26156,33491,37389,39724,40586,39741,38928,38990,41116,51210,57182,57504,0,0,0,0,0,0,0,0,0,0,0,0,0,0,0,0,0,0,0,0,0,0,0,0,0,0,0,0,0,0,0,0,0,0,0,0,0,0,0,0,0,0,0,0,0,0,0,0,650,652,651,651,650,649,649,648,648,648,648,648,649,649,649,649,0,0,0,650,650,650,649,648,648,648,647,647,648,648,648,649,649,649,650,652,651,651,651,651,650,650,649,649,648,648,648,648,648,648,648,649,649,0,652,652,652,652,652,651,651,650,650,650,650,650,651,651,651,652,652,0,0,0,0,0,0,0,0,0,0,0,0,0,0,0,0,0,0,0,0,0,0,0,0,0,0,0,0,0,0,0,0,0,0,0,0,0,0,0,0,0,0,0,0,0,0,0,0,0,0,0,0,65510,65501,65475,65426,65337,65181,64913,64457,63708,62544,60879,58428,55504,50287,47558,0,43894,41743,0,0,0,0,0,0,0,0,0,0,0,0,0,0,0,0,0,0,0,0,0,0,0,0,0,0,0,0,65535,65535,65535,65535,65535,65535,65535,65535,65535,65534,65534,65532,65530,65525,65517,65502,65476,65430,65354,65228,65033,64746,64359,63909,63418,62944,62505,62076,61657,61199,60700,60113,59370,58399,57194,55566,53661,51604,49540,47519,45501,43502,41531,39672,38007,36565,35338,34294,33381,32541,31732,30936,30146,29339,28469,27488,26369,25140,23890,22729,21726,20929,20337,19918,19620,19394,19188,18946,18621,18204,17702,17142,16570,16030,15553,15146,14794,14443,14193,13943,13707,13480,13257,13037,12823,12620,12431,12258,12103,11968,11848,11736,11624,11508,11384,11250,11104,10944,10771,10570,10379,10196,10032,9899,9797,9721,9666,9621,9583,9534,9480,9413,9333,9241,9141,9034,8911,8783,8648,8497,8257,8075,7946,7836,7743,7664,7594,7530,7468,7409,7352,7299,7249,7203,7160,7121,7086,7056,7031,7012,6996,6984,6975,6967,6960
0,0,0,0,0,0,0,0,0,0,0,0,7291,7076,7061,7052,7057,7078,7122,7186,7270,7372,7493,7610,7741,7851,7954,8049,8118,8181,8227,8262,8297,8341,8399,8473,8560,8659,8768,8887,9013,9143,9274,9404,9538,9686,9853,10043,10248,10457,10658,10842,11006,11158,11307,11466,11645,11855,12097,12373,12668,13117,13134,13478,13712,0,0,15552,15532,15701,15782,16250,16690,16380,15498,16457,17324,19848,20901,22191,23654,25074,26548,27762,28806,29742,30616,31467,32293,34651,42773,0,0,0,0,0,0,0,0,0,0,0,0,0,0,0,0,0,0,0,0,0,0,0,0,0,0,0,0,0,0,0,0,0,0,0,0,0,0,0,0,0,0,0,0,0,0,0,0,0,0,0,0,0,0,0,0,0,0,0,0,0,0,0,0,0,0,0,0,0,0,0,7509,7750,7730,7729,7723,7710,7667,7592,7488,7348,7188,7061,6960,6936,6980,7013,7044,7081,7103,7110,7107,7093,7065,7020,6976,6924,6887,6849,6809,6767,6720,6677,6636,6605,6577,6549,6532,6516,6506,6490,6476,6483,0,0,0,0,0,0,0,2671,2655,2657,2660,2667,2676,2686,2698,2709,2718,2727,2746,2736,10638,10868,10982,11064,11213,11134,11133,11120,11096,11039,11006,11004,11028,11082,11158,11248,11339,11420,11485,11533,11575,11620,11680,11766,11884,12032,12202,12380,12543,12692,12843,13001,13185,13437,13795,14302,14843,15459,16163,17159,18448,20130,23892,29538,32799,34537,34962,33658,32643,32603,34793,43026,0,0,0,0,0,0,0,0,0,0,0,0,0,0,0,0,0,0,0,0,0,0,0,0,0,0,0,0,0,0,0,0,0,0,0,0,0,0,0,0,0,0,0,0,0,0,0,0,0,0,0,652,651,651,650,649,648,648,648,647,648,648,648,649,649,649,0,0,649,650,649,649,649,648,648,647,647,647,647,648,648,648,649,649,650,651,651,651,651,650,650,650,649,649,648,648,647,647,647,647,648,648,648,649,650,650,651,651,651,650,650,650,649,649,649,650,650,650,651,651,652,0,0,0,0,0,0,0,0,0,0,0,0,0,0,0,0,0,0,0,0,0,0,0,0,0,0,0,0,0,0,0,0,0,0,0,0,0,0,0,0,0,0,0,0,0,0,0,0,0,0,0,65518,65507,65487,65448,65376,65247,65021,64633,63980,62928,61327,59084,56074,52554,47898,44530,39338,37468,35354,32294,30849,0,0,0,0,0,0,0,0,8649,8571,8508,8460,8427,8405,8388,8413,0,0,0,0,0,0,0,0,0,0,65535,65535,65535,65535,65535,65535,65535,65535,65534,65534,65532,65530,65526,65518,65503,65478,65432,65354,65222,65006,64675,64188,63528,62776,61958,61192,60497,59845,59212,58582,57927,57213,56375,55355,54189,52569,50722,48769,46888,45134,43464,41908,40386,38918,37564,36341,35250,34274,33380,32528,31682,30832,29972,29081,28125,27066,25891,24631,23375,22231,21248,20471,19898,19494,19213,19011,18839,18639,18355,17983,17531,17026,16510,16021,15584,15202,14862,14471,14234,13968,13715,13473,13237,13009,12790,12587,12402,12239,12097,11977,11874,11777,11678,11569,11446,11307,11152,10981,10794,10568,10368,10178,10011,9875,9772,9696,9642,9601,9563,9525,9479,9420,9349,9267,9176,9081,8529,8851,8729,8589,8073,8078,7953,7839,7737,7647,7567,7493,7426,7364,7307,7256,7209,7166,7127,7091,7059,7032,7010,6992,6978,6969,6965,6960,6951
0,0,0,0,0,0,0,0,0,0,0,0,0,7115,7071,7061,7072,7096,7142,7207,7289,7395,7510,7624,7765,7873,7977,8079,8147,8216,8261,8288,8314,8349,8399,8466,8548,8646,8756,8878,9009,9145,9281,9415,9553,9703,9871,10058,10259,10461,10653,10828,10986,11134,11281,11438,11618,11831,12077,12362,12788,12845,13048,0,0,0,0,0,0,0,0,0,0,0,0,16832,17817,20866,22071,23673,25547,27249,29044,30115,31027,31819,32599,33439,34340,36549,38411,0,0,0,0,0,0,0,0,0,0,0,0,0,0,0,0,0,0,0,0,0,0,0,0,0,0,0,0,0,0,0,0,0,0,0,0,0,0,0,0,0,0,0,0,0,0,0,0,0,0,0,0,0,0,0,0,0,0,0,0,0,0,0,0,0,0,0,0,0,0,8145,8016,7941,7864,7858,7849,7822,7768,7683,7570,7432,7284,7162,7066,7026,7035,7045,7058,7076,7085,7086,7081,7067,7044,7009,6972,6929,6893,6856,6818,6780,6739,6701,6663,6631,6600,6567,6539,6508,6482,6454,6430,6328,0,0,0,0,0,0,0,2634,2628,2629,2634,2641,2652,2665,2678,2692,2704,2714,2735,0,10974,11060,11186,11243,11439,11203,11148,11090,11027,10912,10841,10821,10834,10884,10963,11060,11160,11254,11330,11389,11440,11493,11559,11649,11769,11915,12077,12237,12362,12462,12562,12661,12778,12973,13300,13846,14410,15052,15739,16750,17967,19576,22470,26591,29152,30350,30602,29033,28045,28140,29099,0,0,0,0,0,0,0,0,0,0,0,0,0,0,0,0,0,0,0,0,0,0,0,0,0,0,0,0,0,0,0,0,0,0,0,0,0,0,0,0,0,0,0,0,0,0,0,0,0,0,0,0,652,652,651,650,648,648,647,647,647,647,647,648,648,648,649,649,649,649,649,649,648,648,647,647,647,647,647,647,647,647,648,648,649,649,650,650,650,650,650,650,649,649,648,648,647,647,647,647,647,647,647,647,0,649,649,649,650,650,649,649,649,649,649,649,649,649,650,650,650,652,0,0,0,0,0,0,0,0,0,0,0,0,0,0,0,0,0,0,0,0,0,0,0,0,0,0,0,0,0,0,0,0,0,0,0,0,0,0,0,0,0,0,0,0,0,0,0,0,65532,65531,65523,65515,65498,65469,65415,65316,65140,64832,64306,63436,62061,60030,57287,53837,49945,45503,41771,37397,34777,32223,29494,26490,0,12301,0,0,0,0,0,0,8709,8605,8520,8454,8406,8370,8340,8301,8274,0,0,0,0,0,0,0,0,0,65535,65535,65535,65535,65535,65535,65535,65534,65534,65533,65531,65526,65519,65506,65481,65437,65360,65227,65001,64636,64080,63272,62184,60972,59670,58490,57452,56513,55626,54800,53982,53157,52270,51283,50309,48854,47242,45547,43962,42534,41225,40118,39041,37969,36946,35970,35037,34142,33274,32413,31534,30631,29703,28732,27690,26552,25319,24029,22763,21635,20673,19915,19352,18951,18672,18476,18328,18169,17930,17618,17236,16812,16381,15971,15598,15261,14949,14466,14297,14019,13751,13493,13247,13011,12789,12586,12408,12253,12124,12017,11928,11845,11755,11649,11523,11375,11207,11022,10789,10563,10356,10163,9993,9856,9752,9675,9620,9578,9542,9505,9463,9411,9347,9272,9190,9101,9000,8896,8370,8246,8226,8106,7973,7850,7736,7634,7543,7461,7389,7324,7267,7217,7173,7133,7096,7063,7031,7004,6982,6964,6951,6945,6941,6939,6974
0,0,0,0,0,0,0,0,0,0,0,0,0,0,6785,7187,7234,7260,7211,7199,7084,7210,7628,7726,7794,7897,8002,8119,8187,8269,8318,8335,8350,8374,8413,8472,8547,8641,8750,8874,9008,9147,9287,9426,9568,9720,9889,10076,10272,10468,10653,10820,10971,11114,11256,11410,11585,11794,12034,12315,12645,0,0,0,0,0,0,0,0,0,0,0,0,0,0,18223,18275,20050,23286,25307,27761,30596,31602,32368,32951,33444,34017,34753,35630,37247,38603,0,0,0,0,0,0,0,0,0,0,0,0,0,0,0,0,0,0,0,0,0,0,0,0,0,0,0,0,0,0,0,0,0,0,0,0,0,0,0,0,0,0,0,0,0,0,0,0,0,0,0,0,0,0,0,0,0,0,0,0,0,0,0,0,0,0,0,0,0,0,8242,8090,8078,7985,7967,7947,7911,7848,7756,7640,7506,7369,7250,7155,7101,7082,7072,7068,7069,7068,7064,7057,7045,7026,6999,6969,6934,6900,6866,6831,6797,6761,6727,6692,6659,6624,6587,6549,6504,6463,6424,6389,6268,0,0,0,0,0,0,0,2622,2601,2603,2607,2616,2628,2643,2660,2677,2693,2705,0,0,11125,11250,11435,11811,11783,11289,11186,11090,10997,10810,10701,10668,10675,10726,10808,10912,11020,11124,11209,11275,11332,11387,11454,11542,11654,11786,11926,12051,12115,12146,12187,12218,12258,12387,12681,13301,13909,14603,15276,16354,17507,19001,21340,24564,26634,27535,27967,26151,25300,25823,24115,0,0,0,0,0,0,0,0,0,0,0,0,0,0,0,0,0,0,0,0,0,0,0,0,0,0,0,0,0,0,0,0,0,0,0,0,0,0,0,0,0,0,0,0,0,0,0,0,0,0,0,0,652,652,651,650,647,647,646,646,646,646,647,647,647,648,648,648,648,648,648,648,648,647,647,646,646,646,646,646,647,647,647,648,648,648,649,649,649,649,649,649,648,648,647,647,647,646,646,646,646,646,646,646,646,647,648,648,648,649,649,648,648,648,648,648,648,648,649,649,649,650,0,0,0,0,0,0,0,0,0,0,0,0,0,0,0,0,0,0,0,0,0,0,0,0,0,0,0,0,0,0,0,0,0,0,0,0,0,0,0,0,0,0,0,0,0,0,0,0,65531,65527,65520,65509,65487,65447,65374,65242,65009,64604,63918,62801,61077,58610,55425,51639,47527,43175,39253,35198,32138,29301,26622,23276,21879,12034,11484,10930,10429,9967,9564,9214,8820,8663,8543,8453,8386,8332,8284,8231,8129,8039,7958,0,7554,0,7375,7366,7384,0,0,65535,65535,65535,65535,65535,65535,65534,65533,65531,65528,65521,65509,65486,65444,65371,65243,65022,64649,64051,63150,61860,60151,58304,56359,54669,53243,52005,50874,49882,48941,48057,47191,46340,45728,44593,43375,42063,40858,39791,38824,38144,37472,36759,36060,35344,34591,33801,32978,32128,31234,30300,29322,28285,27172,25967,24684,23366,22086,20979,20038,19303,18752,18354,18074,17886,17769,17664,17476,17231,16926,16588,16245,15915,15606,15314,15028,14774,14406,14112,13827,13554,13295,13050,12823,12619,12444,12296,12176,12080,12001,11928,11843,11737,11605,11445,11259,11054,10828,10566,10350,10151,9980,9841,9734,9655,9598,9552,9514,9476,9435,9387,9329,9262,9186,9104,9010,8909,8446,8447,8286,8147,8004,7868,7741,7628,7527,7438,7360,7293,7236,7186,7142,7103,7066,7044,7015,6988,6966,6925,6910,6904,6900,6899,6944
0,0,0,0,0,0,0,0,0,0,0,0,0,0,0,0,0,0,0,0,0,22612,22401,20756,7850,8003,7992,8167,8235,8346,8404,8407,8407,8416,8442,8489,8556,8642,8748,8870,9004,9145,9288,9431,9578,9735,9907,10094,10290,10481,10659,10819,10964,11101,11239,11387,11556,11760,11999,12263,13104,0,0,0,0,0,0,0,0,0,0,0,57399,53017,0,0,0,20780,24265,26852,31057,33351,33914,34299,34418,34539,34869,35477,36301,37550,38804,0,0,0,0,0,0,0,0,0,0,0,0,0,0,0,0,0,0,0,0,0,0,0,0,0,0,0,0,0,0,0,0,0,0,0,0,0,0,0,0,0,0,0,0,0,0,0,0,0,0,0,0,0,0,0,0,0,0,0,0,0,0,0,0,0,0,0,0,0,0,8337,8205,8156,8074,8042,8010,7964,7896,7804,7691,7565,7438,7322,7227,7160,7122,7094,7075,7063,7053,7045,7037,7027,7012,6992,6967,6938,6908,6877,6846,6815,6783,6751,6718,6684,6648,6606,6562,6503,6451,6401,6362,6318,6101,0,0,0,0,0,0,0,2576,2577,2581,2590,2603,2620,2640,2660,2681,2698,2721,0,0,16160,16099,16060,15540,0,2978,2984,2990,10720,10575,10542,10550,10607,10697,10808,10923,11033,11122,11190,11250,11305,11369,11448,11547,11658,11766,11847,11832,11780,11758,11717,11668,11724,11980,12727,13400,14172,14818,16053,17171,18580,20669,23506,25321,26125,25548,24736,24038,23059,0,0,0,0,0,0,0,0,0,0,0,0,0,0,0,0,0,0,0,0,0,0,0,0,0,0,0,0,0,0,0,0,0,0,0,0,0,0,0,0,0,0,0,0,0,0,0,0,0,0,0,0,0,0,0,648,0,646,645,645,645,645,645,646,646,647,647,647,648,648,648,647,647,647,646,646,646,645,645,645,646,646,646,646,647,647,647,647,647,648,648,648,647,647,647,647,646,646,646,645,645,645,645,645,645,645,646,647,647,647,648,648,647,647,647,647,647,647,647,648,648,648,647,646,647,0,0,0,0,0,0,0,0,0,0,0,0,0,0,0,0,0,0,0,0,0,0,0,0,0,0,0,0,0,0,0,0,0,0,0,0,0,0,0,0,0,0,0,0,0,0,65530,65526,65517,65501,65472,65420,65325,65154,64853,64334,63465,62071,59971,57072,53505,49490,45292,41040,37097,33242,30033,27138,24557,21734,21605,12756,11582,11001,10468,9982,9574,9227,8889,8704,8562,8454,8370,8300,8235,8167,8071,7975,7838,7687,7570,7484,7403,7362,7328,7295,7250,7208,7169,7167,65535,65535,65535,65534,65533,65529,65524,65512,65493,65456,65389,65272,65067,64716,64125,63189,61805,59863,57348,54741,52068,49868,48108,46652,45366,44302,43316,42443,41670,41038,40933,40207,39470,38598,37808,37098,36416,36116,35773,35335,34914,34444,33879,33210,32454,31644,30762,29823,28823,27742,26581,25325,24000,22656,21351,20269,19351,18646,18117,17731,17462,17295,17230,17205,17078,16904,16671,16410,16143,15881,15625,15372,15110,14851,14519,14219,13925,13640,13369,13114,12878,12670,12495,12349,12236,12147,12076,12007,11924,11816,11678,11505,11303,11077,10809,10575,10347,10141,9966,9824,9715,9633,9571,9523,9481,9441,9399,9353,9299,9237,9167,9089,8998,8892,8692,8510,8346,8193,8040,7894,7752,7628,7519,7424,7342,7272,7213,7162,7116,7074,7035,6995,6960,6929,6919,6900,6880,6872,6866,6864,6886
0,0,0,0,0,0,0,0,0,0,0,0,0,0,0,0,0,0,0,0,0,22391,22126,21805,21472,20637,20488,8399,8313,8449,8530,8512,8488,8478,8486,8518,8572,8649,8747,8864,8995,9136,9281,9428,9580,9743,9921,10112,10308,10497,10670,10824,10963,11095,11227,11369,11531,11733,11979,12209,13751,0,0,0,0,0,0,0,0,0,0,0,59333,57545,54805,53644,51027,60957,43021,28433,33590,36304,36125,35857,35447,35199,35316,35823,36610,37659,38654,0,0,0,0,0,0,0,0,0,0,0,0,0,0,0,0,0,0,0,0,0,0,0,0,0,0,0,0,0,0,0,0,0,0,0,0,0,0,0,0,0,0,0,0,0,0,0,0,0,0,0,0,0,0,0,0,0,0,0,0,0,0,0,0,0,0,0,0,0,8752,8336,8245,8205,8127,8079,8034,7981,7913,7826,7721,7607,7489,7377,7283,7206,7153,7112,7081,7060,7043,7032,7023,7015,7004,6988,6967,6942,6915,6887,6859,6831,6802,6771,6739,6705,6668,6625,6577,6504,6445,6390,6346,6304,6087,0,0,0,0,0,0,0,2555,2554,2556,2564,2577,2594,2615,2637,2664,2686,2720,2742,0,0,16369,16448,16027,2942,2961,2972,2981,2987,10496,10460,10465,10530,10627,10745,10865,10981,11070,11135,11196,11248,11306,11376,11460,11551,11628,11665,11551,11398,11318,11203,11056,11033,11239,12187,12944,13823,14394,15757,16599,17501,0,0,0,0,0,0,0,0,0,0,0,0,0,0,0,0,0,0,0,0,0,0,0,0,0,0,0,0,0,0,0,0,0,0,0,0,0,0,0,0,0,0,0,0,0,0,0,0,0,0,0,0,0,0,0,0,0,0,0,0,0,0,646,645,644,645,644,644,644,644,645,645,646,646,646,647,647,647,647,646,646,646,645,645,645,645,644,645,645,645,645,645,646,646,646,646,646,646,646,646,646,646,646,646,646,645,645,645,645,644,644,644,644,644,645,646,646,647,647,647,647,646,646,646,646,646,646,646,647,647,646,646,646,0,0,0,0,0,0,0,0,0,0,0,0,0,0,0,0,0,0,0,0,0,0,0,0,0,0,0,0,0,0,0,0,0,0,0,0,0,0,0,0,0,0,0,0,0,65531,65529,65524,65512,65492,65456,65390,65270,65056,64680,64036,62970,61286,58806,55493,51609,47453,43261,39145,35291,31613,28396,25501,22938,20495,14725,12737,11892,11194,10575,10028,9600,9249,8939,8737,8582,8461,8363,8279,8201,8122,8027,7926,7810,7682,7574,7490,7416,7370,7333,7297,7252,7207,7158,7099,7029,6984,6868,65533,65532,65526,65519,65501,65472,65416,65314,65137,64830,64306,63428,62062,60091,57401,54000,50659,47314,44740,42808,41288,39967,38934,37970,37155,36508,36117,36612,36284,36015,35542,35128,34718,34209,34227,34104,33817,33591,33328,32937,32391,31714,30969,30121,29205,28210,27108,25922,24633,23271,21892,20535,19475,18575,17906,17410,17052,16812,16685,16706,16805,16749,16651,16484,16287,16080,15867,15648,15422,15178,14923,14615,14318,14021,13729,13449,13182,12936,12719,12538,12394,12285,12204,12136,12069,11985,11876,11733,11552,11338,11097,10827,10576,10337,10124,9944,9799,9688,9605,9542,9491,9447,9405,9363,9317,9265,9206,9141,9068,8983,8882,8720,8558,8396,8237,8078,7924,7768,7635,7519,7418,7333,7260,7198,7143,7094,7047,7002,6958,6917,6880,6847,6834,6814,6802,6794,6774,6815
0,0,0,0,0,0,0,0,0,25023,23776,26281,26384,0,0,0,0,0,0,0,0,0,20289,18925,18694,18097,19181,18125,8475,8891,8710,8658,8600,8561,8547,8560,8598,8662,8750,8859,8985,9123,9268,9419,9577,9748,9932,10128,10325,10513,10682,10831,10964,11090,11216,11351,11504,11709,12387,12680,15894,0,0,0,0,0,0,0,0,0,0,0,63420,59548,58126,57791,57000,56072,47811,48669,33128,38814,37659,36813,35961,35460,35455,35923,36713,37678,38496,0,0,0,0,0,0,0,0,0,0,0,0,0,0,0,0,0,0,0,0,0,0,0,0,0,0,0,0,0,0,0,0,0,0,0,0,0,0,0,0,0,0,0,0,0,0,0,0,0,0,0,0,0,0,0,0,0,0,0,0,0,0,0,0,0,0,0,0,0,8532,8381,8324,8236,8151,8088,8033,7977,7911,7831,7737,7637,7527,7416,7324,7238,7175,7125,7087,7058,7035,7023,7014,7007,6999,6986,6968,6946,6922,6896,6870,6845,6818,6785,6754,6721,6684,6642,6596,6506,6444,6387,6336,6170,0,0,0,0,0,0,0,2529,2535,2530,2530,2534,2545,2562,2582,2604,2637,2662,2713,2738,2738,0,0,0,2878,2913,2935,2953,2967,2978,2988,10408,10424,10494,10595,10716,10839,10963,11047,11105,11169,11219,11272,11336,11410,11479,11542,11545,11305,11034,10914,10735,10485,10387,10524,9952,12132,0,0,0,5554,5560,5601,5629,0,0,0,0,0,0,0,0,0,0,0,0,0,0,0,0,0,0,0,0,0,0,0,0,0,0,0,0,0,0,0,0,0,0,0,0,0,0,0,0,0,0,0,0,0,0,0,0,0,0,0,0,0,0,0,0,0,0,0,0,644,644,643,644,644,643,644,644,644,644,645,645,646,646,646,646,646,645,645,645,644,644,644,644,644,644,644,644,644,645,645,645,645,645,645,645,645,645,645,645,645,645,645,645,644,644,644,644,644,644,644,644,644,645,645,646,646,646,646,646,646,645,645,645,645,645,646,646,645,645,645,0,0,0,0,0,0,0,0,0,0,0,0,0,0,0,0,0,0,0,0,0,0,0,0,0,0,0,0,0,0,0,0,0,0,0,0,0,0,0,0,0,0,0,0,65532,65531,65528,65522,65509,65483,65440,65360,65216,64960,64512,63749,62494,60536,57705,54024,49879,45631,41488,37527,33828,30341,27200,24342,21763,19337,15749,13465,12385,11506,10753,10104,9641,9279,8980,8769,8605,8476,8368,8273,8184,8096,8001,7903,7796,7684,7585,7504,7434,7386,7346,7308,7263,7213,7157,7094,7026,6975,6938,6893,0,65525,65515,65489,65449,65374,65232,64991,64575,63870,62695,60902,58391,55057,50894,47035,43162,40387,38422,36915,35570,34571,33602,32813,32253,32060,33258,33258,33403,33230,33112,32905,32406,32697,32684,32399,32271,32158,31910,31466,30856,30184,29375,28491,27518,26402,25207,23893,22488,21053,19594,18550,17657,17031,16580,16262,16068,16002,16152,16439,16466,16452,16344,16199,16036,15855,15657,15448,15215,14965,14677,14387,14093,13798,13510,13233,12975,12750,12564,12420,12314,12236,12169,12102,12016,11905,11760,11575,11353,11101,10826,10559,10310,10091,9908,9763,9653,9572,9510,9460,9416,9373,9328,9280,9227,9168,9106,9039,8961,8869,8735,8590,8437,8278,8117,7959,7785,7646,7525,7420,7330,7255,7189,7129,7074,7020,6968,6917,6869,6825,6787,6757,6733,6718,6709,6704,6712
0,0,0,0,0,0,0,0,23163,24863,23488,23242,23637,0,0,0,0,0,0,0,0,0,0,0,21419,20687,20280,8409,9192,9307,8928,8840,8738,8665,8625,8615,8636,8685,8760,8859,8977,9112,9256,9410,9574,9752,9942,10142,10340,10526,10691,10834,10961,11081,11200,11326,11470,12066,13213,15257,16493,0,0,0,0,0,0,0,0,0,0,0,0,61901,60999,59523,58345,59156,55241,51742,49817,40169,38108,36894,35850,35270,35266,35773,36612,37568,38340,0,0,0,0,0,0,0,0,0,0,0,0,0,0,0,0,0,0,0,0,0,0,0,0,0,0,0,0,0,0,0,0,0,0,0,0,0,0,0,0,0,0,0,0,0,0,0,0,0,0,0,0,0,0,0,0,0,0,0,0,0,0,0,0,0,0,0,0,0,0,8396,8350,8247,8155,8083,8022,7964,7901,7829,7745,7658,7554,7442,7354,7259,7190,7134,7091,7058,7030,7017,7008,7003,6996,6985,6969,6949,6927,6903,6880,6857,6830,6793,6763,6732,6697,6659,6622,0,0,2688,2705,2709,2709,2701,2685,2662,2635,2587,2551,2524,2514,2504,2499,2500,2507,2521,2539,2560,2599,2625,2703,2732,2728,2724,2751,2791,2837,2873,2902,2926,2947,2963,2977,2993,0,0,0,4663,0,10974,11059,11139,0,0,4777,4775,4775,4776,4779,0,11134,10721,10508,10286,10015,9769,9734,8539,8031,0,0,5590,5568,0,5612,5636,0,0,0,0,0,0,0,0,0,0,0,0,0,0,0,0,0,0,0,0,0,0,0,0,0,0,0,0,0,0,0,0,0,0,0,0,0,0,0,0,0,0,0,0,0,0,0,0,0,0,0,0,0,0,0,0,0,0,0,645,644,644,643,643,643,643,643,643,644,644,644,645,645,645,645,645,645,645,644,644,644,643,643,643,643,643,643,644,644,644,644,644,644,644,644,644,644,644,644,644,644,644,644,644,644,644,644,643,643,643,643,643,644,644,645,645,645,645,645,645,645,645,645,644,645,645,645,645,645,645,644,645,0,0,0,0,0,0,0,0,0,0,0,0,0,0,0,0,0,0,0,0,0,0,0,0,0,0,0,0,0,0,0,0,0,0,0,0,0,0,0,0,0,0,0,0,65531,65527,65517,65501,65476,65426,65335,65172,64880,64371,63508,62096,59911,56793,52817,48477,44175,40099,36299,32791,29528,26559,23846,21374,19062,16234,14182,12933,11889,10984,10197,9693,9317,9021,8804,8635,8500,8386,8283,8185,8092,7996,7900,7801,7700,7608,7530,7463,7413,7371,7329,7282,7227,7164,7096,7026,6968,6923,6876,6815,6782,6758,65465,65434,65341,65165,64872,64372,63527,62114,60005,57149,53417,48650,44498,40116,37224,35292,33816,32394,31508,30485,29670,29130,28979,31129,31379,31919,31938,32035,31926,31211,31800,31797,31335,31203,31180,31025,30633,30039,29418,28620,27759,26805,25667,24469,23130,21661,20129,18490,17456,16550,15971,15575,15307,15170,15179,15508,16079,16200,16281,16226,16123,15990,15830,15640,15439,15213,14969,14695,14414,14124,13830,13537,13252,12985,12752,12563,12421,12317,12241,12175,12106,12016,11904,11760,11572,11344,11084,10801,10521,10263,10041,9859,9716,9611,9534,9476,9429,9386,9341,9293,9241,9184,9124,9062,8998,8926,8844,8731,8603,8461,8308,8151,7994,7798,7658,7533,7425,7333,7253,7183,7118,7056,6995,6936,6878,6823,6774,6733,6703,6677,6656,6647,6645,6640
0,0,0,0,0,0,0,22485,22163,24569,24399,23800,23060,21529,0,0,0,0,0,0,0,0,0,0,20956,20085,17350,8422,8495,9834,9238,9047,8893,8782,8712,8680,8682,8716,8779,8868,8979,9109,9253,9409,9578,9759,9954,10155,10353,10535,10694,10831,10952,11065,11176,11291,11407,12735,0,0,0,0,0,0,0,0,0,0,0,0,0,0,0,0,0,0,0,59434,57319,53057,48608,40766,37334,36046,35051,34574,34688,35308,36240,37246,38024,0,0,0,0,0,0,0,0,0,0,0,0,0,0,0,0,0,0,0,0,0,0,0,0,0,0,0,0,0,0,0,0,0,0,0,0,0,0,0,0,0,0,0,0,0,0,0,0,0,0,0,0,0,0,0,0,0,0,0,0,0,0,0,0,0,0,0,0,0,0,8379,8308,8246,8150,8075,8011,7953,7894,7826,7749,7676,7574,7455,7376,7270,7198,7139,7093,7058,7024,7012,7004,7002,6995,6985,6970,6952,6930,6908,6887,6867,6833,0,0,0,0,2564,2577,2600,2625,2644,2673,2681,2681,2673,2656,2632,2604,2562,2528,2500,2483,2468,2460,2457,2461,2472,2487,2504,2510,2521,2530,0,2585,2644,2719,2760,2791,2827,2861,2892,2918,2940,2958,2984,0,0,4655,4666,4689,4714,4737,4755,4767,4773,4775,4774,4774,4777,4783,4798,4810,10518,10196,9701,9503,6974,6674,6376,6157,5949,5775,5631,5596,5581,5614,5635,0,0,0,0,0,0,0,0,0,0,0,0,0,0,0,0,0,0,0,0,0,0,0,0,0,0,0,0,0,0,0,0,0,0,0,0,0,0,0,0,0,0,0,0,0,0,0,0,0,0,0,0,0,0,0,0,0,0,644,644,644,644,643,643,643,643,643,643,643,644,644,644,644,644,644,644,644,644,644,643,643,643,643,643,643,643,643,643,643,643,644,644,644,644,644,644,644,644,644,644,644,644,644,644,644,643,643,643,643,643,643,643,644,644,645,645,645,645,645,645,644,644,644,644,644,644,644,644,644,644,644,0,0,0,0,0,0,0,0,0,0,0,0,0,0,0,0,0,0,0,0,0,0,0,0,0,0,0,0,0,0,0,0,0,0,0,0,0,0,0,0,0,0,0,0,0,0,65526,65516,65498,65470,65416,65317,65138,64820,64267,63329,61802,59453,56131,51951,47483,43157,39149,35483,32144,29081,26293,23743,21409,19224,16828,14918,13549,12359,11279,10294,9749,9361,9064,8843,8671,8532,8414,8305,8203,8106,8011,7918,7825,7732,7645,7569,7503,7451,7404,7359,7307,7246,7177,7103,7029,6967,6916,6868,6817,6782,6755,6724,6702,6819,65112,64814,64277,63375,61893,59703,56851,53085,47745,43377,38080,35067,33197,31746,30271,29340,28213,27324,26738,26732,24583,32509,31810,31223,8780,8744,27518,8809,12465,27850,30559,30592,30489,30075,29408,28796,27950,27082,26137,24952,23756,22389,20826,19144,17210,16190,15247,14723,14389,14175,14093,14175,14734,15729,15944,16139,16126,16056,15947,15798,15607,15410,15189,14949,14687,14413,14127,13834,13538,13248,12976,12740,12550,12409,12308,12234,12165,12095,11997,11884,11740,11551,11319,11050,10760,10467,10201,9978,9798,9660,9560,9489,9436,9392,9350,9303,9252,9195,9133,9069,9005,8941,8874,8799,8702,8589,8460,8319,8173,7815,7804,7669,7542,7433,7338,7255,7181,7111,7044,6977,6910,6846,6788,6736,6693,6669,6643,6559,6600,6605,6605
0,0,0,0,0,0,0,22369,21942,24394,24242,24081,23640,35003,35851,35506,34675,33195,0,0,0,0,0,0,21659,18844,18039,15328,14355,9100,9557,9253,9045,8896,8800,8747,8733,8753,8806,8886,8991,9118,9261,9418,9589,9773,9968,10168,10363,10539,10693,10823,10938,11044,11148,11255,12180,0,0,0,0,0,0,0,0,0,0,0,0,0,0,0,0,0,0,0,0,0,56129,51018,39687,39709,35497,34410,33656,33416,33737,34520,35578,36689,37547,0,0,0,0,0,0,0,0,0,0,0,0,0,0,0,0,0,0,0,0,0,0,0,0,0,0,0,0,0,0,0,0,0,0,0,0,0,0,0,0,0,0,0,0,0,0,0,0,0,0,0,0,0,0,0,0,0,0,0,0,0,0,0,0,0,0,0,2482,0,0,2497,2509,2498,0,2498,2490,0,2443,0,7752,7695,7571,7419,7394,0,0,0,0,0,7015,7006,7001,0,2522,2521,2519,2516,2513,0,0,0,0,0,0,2488,2512,2539,2553,2574,2595,2614,2637,2644,2643,2634,2617,2593,2563,2526,2493,2464,2443,2425,2414,2409,2412,2420,2433,2450,2460,2473,2454,2460,2532,2564,2630,2724,2738,2775,2814,2850,2881,2907,2930,2972,0,4635,4650,4664,4686,4710,4733,4751,4763,4769,4771,4770,4772,4776,4785,4801,4818,4850,0,7151,7183,6664,6416,6208,6060,5890,5748,5638,5600,5596,5611,5625,0,0,0,0,0,0,0,0,0,0,0,0,0,0,0,0,0,0,0,0,0,0,0,0,0,0,0,0,0,0,0,0,0,0,0,0,0,0,0,0,0,0,0,0,0,0,0,0,0,0,0,0,0,0,0,0,0,0,644,644,644,644,643,643,643,643,643,643,643,643,643,644,644,644,644,644,644,643,643,643,643,642,642,642,642,642,643,643,643,643,643,643,643,643,643,643,643,643,643,643,643,643,643,643,643,643,643,643,643,643,643,643,644,644,644,645,645,645,644,644,644,644,643,643,643,643,643,644,644,644,644,644,0,0,0,0,0,0,0,0,0,0,0,0,0,0,0,0,0,0,0,0,0,0,0,0,0,0,0,0,0,0,0,0,0,0,0,0,0,0,0,0,0,0,0,0,65528,65524,65513,65497,65467,65409,65304,65115,64780,64196,63208,61605,59150,55699,51402,46870,42550,38606,35042,31826,28907,26255,23834,21615,19542,17417,15615,14184,12955,11685,10369,9808,9414,9114,8889,8713,8571,8450,8339,8235,8137,8042,7952,7863,7776,7693,7617,7550,7492,7439,7386,7327,7260,7185,7107,7030,6965,6911,6865,6819,6784,6755,6725,6700,6688,6667,0,0,0,0,0,57326,53663,47521,43149,34265,33697,31914,30440,28872,28087,26884,25984,25429,23764,21345,0,8848,8605,8622,8570,8428,8421,8255,8184,8126,8082,8042,10949,28894,28409,27428,26520,25579,24310,23138,21756,20073,18177,15797,14821,13819,13358,13091,12925,12879,13005,13836,15455,15737,15959,16068,16015,15921,15557,15574,15381,15163,14927,14671,14402,14120,13827,13531,13239,12965,12727,12538,12398,12298,12225,12151,12079,11968,11852,11709,11520,11283,11007,10710,10401,10126,9903,9726,9592,9496,9430,9380,9338,9296,9260,9206,9131,9064,8996,8928,8863,8796,8725,8638,8536,8417,8285,8142,7954,7812,7678,7555,7445,7348,7261,7183,7109,7037,6965,6894,6827,6766,6714,6681,6580,6550,6533,6526,6589,6588
0,0,0,0,0,0,24007,23937,23954,23940,23832,23715,23212,34600,35320,34501,33269,31007,28945,27823,0,0,0,0,21076,18248,17526,15059,10501,9418,9952,9436,9175,8994,8874,8805,8779,8790,8835,8909,9010,9134,9276,9433,9604,9788,9982,10179,10368,10539,10687,10812,10922,11024,11124,11229,11627,0,0,0,0,0,0,0,0,0,0,0,0,0,0,0,0,0,0,0,0,0,0,44038,36870,34202,32935,32256,31872,31945,32512,33477,34674,35930,37046,0,0,0,0,0,0,0,0,0,0,0,0,0,0,0,0,0,0,0,0,0,0,0,0,0,0,0,0,0,0,0,0,0,0,0,0,0,0,0,0,0,0,0,0,0,0,0,0,0,0,0,0,0,0,0,0,0,0,0,0,0,0,0,0,2434,2448,2491,2470,2468,2470,2495,2511,2458,2439,2434,2428,2409,2388,2377,2374,2373,0,2383,2383,0,0,0,0,0,0,2503,2503,2506,2511,2510,2508,2505,2501,2489,2480,2473,2468,2464,2464,2474,2489,2511,2522,2539,2556,2573,2593,2599,2597,2587,2569,2544,2515,2480,2448,2420,2397,2379,2367,2361,2363,2370,2384,2400,2415,2430,2430,2442,2479,2512,2547,2584,2682,2717,2761,2800,2836,2865,2891,2960,0,4632,4645,4660,4681,4705,4727,4745,4757,4762,4765,4765,4767,4773,4784,4800,4823,4858,4942,5018,6385,6318,6121,6008,5954,5825,5715,5632,5595,5589,0,0,0,0,3183,3178,3177,3181,0,0,0,0,0,0,0,0,0,0,0,0,0,0,0,0,0,0,0,0,0,0,0,0,0,0,0,0,0,0,0,0,0,0,0,0,0,0,0,0,0,0,0,0,0,0,0,0,0,0,0,0,644,644,644,644,644,643,643,643,643,643,643,643,643,643,643,643,643,643,643,643,643,642,642,642,642,642,642,642,642,643,643,643,643,643,643,643,643,643,643,643,643,643,643,643,643,643,643,643,643,643,643,643,643,643,644,644,644,644,644,644,644,644,644,643,643,643,643,643,643,643,643,643,643,643,0,0,0,0,0,0,0,0,0,0,0,0,0,0,0,0,0,0,0,0,0,0,0,0,0,0,0,0,0,0,0,0,0,0,0,0,0,0,0,0,0,0,0,65531,65526,65520,65511,65497,65465,65406,65298,65103,64758,64159,63146,61503,58996,55484,51139,46585,42280,38383,34885,31741,28896,26308,23943,21778,19771,17822,16120,14692,13481,12296,10402,9868,9479,9178,8947,8766,8619,8495,8382,8277,8179,8086,7997,7913,7829,7745,7666,7593,7526,7463,7400,7333,7259,7179,7098,7021,6956,6903,6859,6818,6784,6754,6723,6696,6676,6655,6603,6666,0,0,0,0,0,0,0,0,0,26908,27920,28169,24619,23548,30813,30484,9188,8842,8455,8422,8424,8404,8345,8239,8205,8094,8033,7984,7944,7891,7756,7703,7665,26797,26138,25215,23816,22733,21394,19565,17166,14179,12412,12375,11992,11798,11662,11620,11733,11894,0,0,0,0,0,4614,4612,0,0,0,0,0,0,0,0,0,0,0,3996,3977,3951,3946,0,11880,11829,11920,11816,11676,11487,11247,10966,10663,10332,10044,9820,9643,9509,9413,9349,9299,9255,9211,9162,9106,9039,8969,8897,8828,8760,8693,8623,8542,8449,8343,8223,8092,7935,7803,7676,7559,7452,7356,7268,7187,7111,7036,6961,6888,6820,6760,6710,6670,6577,6546,6528,6522,6524,6520
0,0,0,0,0,22294,23496,23569,23538,23505,23353,23243,22729,33825,34407,32939,31291,28142,26352,25070,22400,22588,21858,0,17731,17620,17024,14857,13873,9517,10004,9510,9235,9044,8918,8844,8814,8821,8862,8933,9032,9153,9294,9450,9619,9801,9992,10185,10369,10535,10678,10799,10906,11007,11109,11201,11579,0,0,0,0,0,0,0,0,0,0,0,0,0,0,0,0,0,0,0,0,0,36321,37464,32982,30680,30536,30177,30107,30451,31228,32340,33646,35073,35824,0,0,0,0,0,0,0,0,0,0,0,0,0,0,0,0,0,0,0,0,0,0,0,0,0,0,0,0,0,0,0,0,0,0,0,0,0,0,0,0,0,0,0,0,0,0,0,0,0,0,0,0,0,0,0,0,0,0,0,0,0,0,2387,2394,2418,2418,2447,2455,2449,2452,2465,2465,2457,2402,2393,2407,2415,2366,2349,2346,2354,2361,2374,2382,2389,2395,0,2424,2454,2463,2479,2489,2493,2496,2496,2494,2490,2485,2476,2468,2460,2454,2448,2446,2452,2460,2480,2483,2495,2509,2523,2544,2548,2545,2535,2515,2491,2462,2429,2400,2372,2351,2334,2323,2318,2319,2326,2339,2357,2374,2393,2403,2420,2451,2481,2513,2548,2605,2660,2706,2747,2783,2813,2841,2936,0,4629,4641,4656,4676,4698,4720,4737,4749,4755,4757,4757,4759,4764,4774,4788,4811,4849,4965,5095,5247,5710,5839,5822,5877,5779,5694,5595,0,3506,3479,3411,3295,3237,3201,3192,3189,3195,3217,0,0,0,0,0,0,0,0,0,0,0,0,0,0,0,0,0,0,0,0,0,0,0,0,0,0,0,0,0,0,0,0,0,0,0,0,0,0,0,0,0,0,0,0,0,0,0,0,0,0,0,644,644,644,644,644,643,643,643,643,643,643,643,643,643,643,643,643,643,643,643,642,642,642,642,642,642,642,642,642,643,643,643,643,643,643,643,643,643,643,643,643,643,643,643,643,643,643,643,643,643,643,643,643,643,644,644,644,644,644,644,644,643,643,643,643,643,643,643,643,643,643,643,643,643,0,0,0,0,0,0,0,0,0,0,0,0,0,0,0,0,0,0,0,0,0,0,0,0,0,0,0,0,0,0,0,0,0,0,0,0,0,0,0,0,0,0,0,65531,65528,65521,65513,65497,65465,65406,65299,65105,64761,64163,63152,61513,59007,55495,51143,46573,42260,38378,34910,31794,28964,26364,23969,21776,19767,17910,16286,14894,13704,12194,10552,10008,9598,9278,9029,8834,8677,8546,8430,8324,8227,8135,8048,7963,7878,7791,7707,7624,7544,7468,7393,7316,7235,7152,7071,6996,6935,6885,6845,6809,6778,6748,6717,6688,6664,6643,6628,6636,6664,6721,6744,6827,6861,6954,6962,0,0,0,0,0,0,0,6965,7105,7989,8080,8187,8181,8173,8140,8081,7996,7952,7876,7830,7795,7769,7726,7643,7606,7574,7518,7526,7564,23585,22726,21505,12019,16251,12897,12313,10886,10776,10660,10557,10527,10454,10517,0,0,0,4681,4656,4630,4602,4525,4463,4431,4381,0,0,0,4114,4071,4075,4051,4027,4002,3974,3946,3927,3912,0,11414,11792,11655,11466,11224,10940,10633,10267,9957,9731,9551,9413,9313,9246,9190,9141,9093,9041,8983,8917,8848,8777,8707,8639,8570,8501,8424,8338,8242,8135,8020,7889,7771,7657,7550,7449,7357,7270,7189,7112,7035,6960,6887,6821,6765,6718,6682,6655,6556,6537,6531,6537,6529
0,0,0,0,0,22108,23031,22995,22931,22846,22709,22358,22089,32674,33142,30876,28939,19628,19185,18823,18310,18627,18399,18160,17448,17252,16708,14643,13733,9554,9902,9494,9235,9054,8934,8864,8837,8847,8889,8960,9056,9176,9314,9468,9634,9812,9999,10187,10367,10529,10668,10788,10895,11000,11111,11239,11407,0,17995,19668,20116,0,0,0,0,0,0,0,0,0,0,0,0,0,0,34070,32979,29250,29183,28507,28741,27933,28423,28345,28537,29092,30024,31231,32610,34271,35197,0,0,0,0,0,0,0,0,0,0,0,0,0,0,0,0,0,0,0,0,0,0,0,0,0,0,0,0,0,0,0,0,0,0,0,0,0,0,0,0,0,0,0,0,0,0,0,0,0,0,0,0,0,0,0,0,0,0,0,0,0,0,2372,2376,2391,2424,2398,2434,2422,2418,2386,2378,2367,2355,2347,2333,2311,2365,2328,2327,2341,2352,2366,2376,2386,2394,2407,2423,2441,2451,2464,2472,2477,2479,2479,2477,2473,2467,2459,2451,2443,2436,2428,2423,2425,2427,2426,2440,2447,2457,2470,2494,2496,2493,2482,2461,2438,2412,2380,2354,2331,2311,2296,2286,2281,2282,2289,2301,2319,2339,2360,2377,2397,2424,2452,2482,2516,2562,2609,2656,2695,2731,2759,2778,0,0,4627,4637,4652,4671,4692,4714,4730,4741,4746,4747,4747,4747,4748,4752,4755,4767,4791,4919,5071,5268,5540,5615,5588,0,0,3559,3534,3507,3481,3445,3378,3315,3252,3218,3204,3201,3209,3234,0,0,0,0,0,0,0,0,0,0,0,0,0,0,0,0,0,0,0,0,0,0,0,0,0,0,0,0,0,0,0,0,0,0,0,0,0,0,0,0,0,0,0,0,0,0,0,0,0,643,643,644,644,644,644,644,644,643,643,643,643,643,643,643,643,643,643,643,643,643,642,642,642,642,642,642,642,642,642,642,642,643,643,643,643,643,643,643,643,643,643,643,643,643,643,643,643,643,643,643,643,643,643,643,644,644,644,644,644,644,644,643,643,643,643,643,643,642,642,643,643,643,643,643,643,0,0,0,0,0,0,0,0,0,0,0,0,0,0,0,0,0,0,0,0,0,0,0,0,3010,2997,0,0,0,0,0,0,0,0,0,0,0,0,0,0,0,0,0,65531,65528,65523,65514,65499,65468,65411,65307,65120,64788,64209,63228,61632,59181,55719,51386,46777,42410,38495,35022,31903,29048,26384,23894,21601,19521,17678,16085,14701,13482,12162,10849,10232,9768,9410,9132,8914,8741,8600,8479,8370,8272,8181,8093,8011,7924,7827,7733,7638,7544,7452,7364,7277,7191,7107,7028,6957,6902,6858,6822,6791,6763,6736,6706,6676,6649,6627,6614,6619,6641,6673,6708,6733,6755,6763,6780,6817,0,0,0,0,0,6715,6872,7585,7694,7814,7886,7896,7883,7847,7791,7716,7670,7615,7583,7562,7555,7525,7480,7468,7452,7427,7456,7527,7657,7786,10488,8471,8779,9442,9631,9858,9799,9750,9678,9683,9649,10032,8785,0,4682,4699,4668,4633,4590,4527,4467,4427,4330,4295,4241,4212,4172,4122,4083,4055,4028,4001,3973,3946,3924,3906,3880,3863,3857,3865,3868,3873,3893,3896,9953,9867,9640,9455,9307,9199,9128,9065,9007,8954,8899,8842,8778,8712,8646,8578,8510,8439,8370,8295,8212,8124,8029,7927,7817,7714,7615,7519,7428,7342,7261,7182,7106,7031,6957,6887,6825,6773,6732,6701,6680,6680,6616,6546,6558,6544
0,0,0,0,0,21869,22441,22322,22192,22031,21834,21577,21142,31584,31979,28670,26602,18013,18257,17935,17587,16659,16596,16866,16913,15506,15027,14377,14043,10750,9706,9397,9182,9029,8928,8872,8855,8871,8917,8990,9086,9204,9339,9488,9650,9824,10005,10190,10366,10525,10662,10782,10892,11003,11129,11286,11505,11948,17032,19089,19973,21355,0,0,0,0,0,0,0,0,0,0,0,0,39970,28312,26688,26605,26773,27010,27031,26604,26858,26954,27307,27982,28985,30205,31592,33587,0,0,0,0,0,0,0,0,0,0,0,0,0,0,0,0,0,0,0,0,0,0,0,0,0,0,0,0,0,0,0,0,0,0,0,0,0,0,0,0,0,0,0,0,0,0,0,0,0,0,0,0,0,0,0,0,0,0,0,0,0,0,2248,0,2368,2371,2385,2383,2319,2319,2358,2358,2327,2318,2309,2266,2263,2262,2279,2287,2306,2326,2341,2356,2369,2379,2388,2400,2414,2427,2437,2447,2454,2458,2460,2460,2458,2454,2447,2440,2432,2420,2414,2407,2399,2399,2395,2392,2398,2400,2406,2417,2434,2449,2448,2437,2401,2369,2351,2336,2316,2297,2280,2267,2257,2252,2252,2258,2270,2287,2308,2330,2351,2374,2400,2427,2455,2486,2525,2567,2613,2649,2683,2712,2723,2693,0,4637,4635,4650,4667,4688,4708,4723,4733,4737,4737,4734,4731,4725,4719,4701,4691,4681,4734,4965,5036,0,5443,5141,5032,0,3529,3510,3484,3455,3418,3362,3308,3255,3223,3206,3202,3217,3252,3299,0,0,0,0,0,0,0,0,0,0,0,0,0,0,0,0,0,0,0,0,0,0,0,0,0,0,0,0,0,0,0,0,0,0,0,0,0,0,0,0,0,0,0,0,0,0,0,643,644,644,644,644,644,644,644,644,644,643,643,643,643,643,643,643,643,643,643,643,642,642,642,642,642,642,642,642,642,642,642,642,643,643,643,643,643,643,643,643,643,643,643,643,643,643,643,643,643,643,643,643,643,643,643,643,644,644,644,644,643,643,643,643,643,643,642,642,642,642,642,642,643,643,643,643,643,0,0,0,0,0,0,0,0,0,0,0,0,0,0,0,0,0,0,0,3118,3065,3046,3024,2989,2973,2953,2945,2934,0,0,0,0,0,0,0,0,0,0,0,0,0,0,65531,65528,65525,65516,65501,65472,65418,65320,65144,64829,64279,63344,61815,59448,56067,51768,47103,42641,38654,35151,32017,29129,26392,23792,21378,19205,17358,15806,14475,13305,12146,11057,10415,9922,9536,9233,8993,8803,8650,8522,8411,8317,8224,8136,8047,7956,7850,7746,7638,7529,7423,7323,7227,7137,7054,6979,6914,6865,6827,6796,6769,6744,6719,6691,6661,6634,6612,6598,6598,6613,6635,6661,6681,6698,6706,6720,6682,6644,6625,6621,6645,6723,6855,6997,7273,7386,7524,7568,7586,7573,7537,7486,7416,7369,7326,7303,7292,7304,7280,7263,7279,7279,7272,7319,7421,7535,7685,7896,8095,8425,8814,8975,9093,9052,9055,9004,9059,9051,9258,0,0,4807,4730,4689,4646,4576,4526,4468,4420,4354,4300,4251,4208,4166,4126,4088,4057,4028,4001,3973,3947,3924,3905,3883,3868,3864,3863,3865,3868,3871,3872,3867,0,9783,9373,9206,9082,9010,8939,8873,8814,8757,8702,8641,8579,8518,8452,8386,8312,8242,8167,8083,7999,7912,7820,7725,7635,7548,7465,7383,7305,7230,7157,7085,7014,6943,6878,6821,6774,6739,6714,6696,6698,6682,6564,6583,6558
0,0,0,0,0,21650,21824,21620,21402,21134,20826,20465,20056,18042,17414,27005,24938,16857,16513,16264,16043,15967,15917,14782,17303,16091,14435,13856,13388,9621,9534,9294,9120,8996,8918,8878,8873,8898,8950,9026,9123,9238,9369,9513,9670,9838,10015,10195,10368,10526,10664,10783,10894,11006,11135,11296,11514,11845,16559,18739,20766,20448,0,0,0,0,0,0,0,0,0,0,40249,38798,29556,27128,25942,25878,25882,25910,25853,25629,25802,25998,26432,27150,28157,29339,30515,0,0,0,0,0,0,0,0,0,0,0,0,0,0,0,0,0,0,0,0,0,0,0,0,0,0,0,0,0,0,0,0,0,0,0,0,0,0,0,0,0,0,0,0,0,0,0,0,0,0,0,0,0,0,0,0,0,0,0,0,0,2164,2206,2211,2218,2366,2368,2375,2370,2300,2325,2305,2261,2251,2243,2238,2236,2236,2239,2253,2265,2285,2312,2330,2347,2360,2371,2381,2391,2403,2415,2423,2431,2437,2441,2441,2440,2440,2435,2428,2422,2414,2403,2397,2389,2378,2374,2368,2364,2362,2358,2360,2357,2344,2353,2336,2332,2334,2328,2316,2303,2287,2271,2257,2245,2236,2230,2230,2235,2245,2261,2281,2304,2327,2352,2378,2404,2432,2460,2494,2530,2572,2607,2641,2674,2690,2681,2675,2673,0,4649,4666,4685,4706,4719,4726,4729,4727,4722,4714,4700,4682,4636,4600,4554,4423,4242,4150,4049,4142,4103,4072,3546,3493,3481,3454,3424,3388,3339,3290,3244,3211,3191,3185,3205,3260,3300,0,0,0,0,0,0,0,0,0,0,0,0,0,0,0,0,0,0,0,0,0,0,0,0,0,0,0,0,0,0,0,0,0,0,0,0,0,0,0,0,0,0,0,0,0,0,0,643,644,644,644,644,644,644,644,644,644,643,643,643,643,643,643,643,643,643,643,643,642,642,642,642,642,642,641,641,642,642,642,642,642,643,643,643,643,643,643,643,643,643,643,643,642,642,642,642,643,643,643,643,643,643,643,643,643,643,643,643,643,643,643,643,643,642,642,642,642,642,642,642,642,642,642,643,0,0,2093,2093,2092,0,0,0,0,0,0,0,0,0,0,0,0,0,0,3093,3056,3036,3017,2995,2969,2955,2938,2929,2919,0,0,0,0,0,0,0,0,0,0,0,0,0,0,0,65529,65525,65518,65503,65476,65425,65333,65167,64869,64348,63459,61996,59714,56418,52156,47437,42866,38793,35251,32107,29201,26412,23724,21169,18920,17060,15547,14280,13179,12145,11204,10562,10054,9647,9322,9063,8857,8693,8559,8451,8350,8256,8165,8073,7977,7862,7749,7630,7509,7392,7282,7180,7089,7006,6936,6876,6834,6801,6772,6750,6728,6706,6680,6652,6625,6602,6586,6582,6587,6599,6614,6626,6636,6642,6639,6627,6602,6587,6583,6601,6656,6747,6846,7017,7093,7179,7261,7288,7271,7238,7198,7128,7081,7043,7021,7011,7040,7008,7004,7048,7056,7051,7108,7239,7331,7469,7636,7820,8055,8297,8443,8506,8466,8533,8498,8634,8651,0,0,4921,4847,4769,4717,4665,4617,4520,4473,4419,4357,4303,4254,4209,4167,4127,4089,4058,4028,4001,3974,3949,3926,3906,3887,3872,3866,3862,3861,3862,3862,3860,3854,3843,3848,0,9147,8986,8913,8833,8757,8693,8634,8583,8523,8466,8410,8346,8282,8203,8133,8056,7967,7882,7800,7712,7626,7545,7467,7392,7317,7247,7179,7113,7047,6981,6916,6856,6804,6763,6732,6711,6697,6694,6686,6684,6596,6561
0,0,0,0,0,21374,21297,20979,20665,20282,19860,19396,18891,17898,12870,12989,15588,15572,15401,15265,15139,15851,15149,15659,15997,15693,13645,13059,8954,9717,9448,9235,9081,8976,8914,8890,8897,8931,8989,9067,9164,9277,9404,9542,9693,9856,10029,10207,10380,10540,10681,10806,10921,11035,11160,11309,11490,11682,11520,11654,11797,23796,22552,0,0,0,0,0,0,0,0,0,20843,26078,24790,25214,25367,25363,25290,25239,25163,25049,25188,25428,25883,26600,27605,27310,28232,0,0,0,0,0,0,0,0,0,0,0,0,0,0,0,0,0,0,0,0,0,0,0,0,0,0,0,0,0,0,0,0,0,0,0,0,0,0,0,0,0,0,0,0,0,0,0,0,0,0,0,0,0,0,0,0,0,0,0,0,2140,2148,2199,2205,2357,2364,2365,2369,2362,2349,2293,2243,2228,2219,2213,2209,2209,2211,2217,2230,2244,2265,2295,2321,2339,2353,2363,2372,2381,2390,2408,2417,2414,2421,2424,2423,2422,2422,2426,2411,2407,2399,2388,2382,2373,2361,2351,2349,2335,2335,2324,2323,2320,2313,2308,2307,2304,2304,2299,2290,2280,2267,2254,2241,2230,2221,2215,2213,2217,2226,2240,2259,2282,2306,2332,2358,2384,2411,2438,2468,2500,2531,2568,2603,2641,2664,2671,2671,2662,2661,2660,2671,2671,4708,4718,4723,4723,4720,4713,4702,4682,4654,4580,4528,4465,4345,4182,4067,3864,3680,3601,3546,3501,3463,3444,3417,3387,3351,3307,3261,3216,3181,3156,3144,3171,3268,0,0,2783,2783,2783,2782,2778,2770,2759,2743,0,0,0,0,0,0,0,0,0,0,0,0,0,0,0,0,0,0,0,0,0,0,0,0,0,0,0,0,0,0,0,0,0,0,0,0,0,0,643,644,644,644,644,644,644,644,644,643,643,643,643,643,643,643,643,643,643,643,643,643,642,642,642,642,642,641,641,641,642,642,642,642,643,643,643,643,643,643,643,643,643,643,643,642,642,642,642,642,642,643,643,643,643,643,643,643,643,643,643,643,643,643,643,642,642,642,642,642,642,642,642,642,642,642,643,0,2092,2060,2061,2092,2092,0,0,0,0,0,0,0,0,3281,0,3219,3183,3086,3067,3045,3020,2996,2972,2948,2932,2916,2907,2898,2882,0,0,0,0,0,0,0,0,0,0,0,0,0,0,65529,65526,65519,65505,65479,65431,65343,65184,64900,64401,63546,62134,59916,56684,52449,47676,43004,38847,35271,32127,29228,26421,23681,21075,18749,16865,15376,14156,13112,12164,11316,10678,10159,9737,9395,9119,8900,8727,8585,8466,8362,8277,8184,8089,7977,7867,7747,7620,7492,7367,7252,7147,7053,6971,6904,6852,6813,6783,6760,6741,6723,6702,6679,6652,6626,6603,6585,6575,6572,6572,6575,6577,6579,6580,6577,6569,6553,6543,6540,6552,6589,6649,6714,6814,6871,6897,6971,7005,7004,6978,6937,6881,6836,6799,6773,6757,6757,6742,6736,6758,6756,6783,6839,7005,7064,7190,7318,7497,7679,7845,8000,8037,7995,8169,8338,8311,8263,0,5172,4989,4887,4809,4747,4685,4627,4529,4481,4423,4362,4306,4254,4208,4165,4125,4089,4057,4028,4001,3975,3951,3929,3910,3891,3877,3867,3861,3857,3854,3851,3845,3837,3825,3803,3789,3785,8927,8851,8759,8670,8602,8542,8496,8436,8382,8332,8270,8208,8121,8053,7976,7876,7790,7709,7619,7537,7460,7387,7317,7244,7180,7116,7057,6998,6940,6882,6828,6780,6743,6716,6697,6683,6677,6672,6670,6657,6561
0,0,0,0,0,21138,20865,20418,20019,19522,18991,18424,17807,17320,14906,12747,15124,14626,14509,14416,14330,15020,14325,14157,14030,14560,14154,12311,8994,9448,9356,9171,9040,8956,8912,8903,8922,8965,9029,9110,9207,9317,9439,9572,9718,9877,10048,10226,10404,10572,10726,10867,10998,11129,11269,11428,11606,11818,11685,11986,11910,0,0,0,0,0,0,0,0,0,0,40851,0,24591,24692,24949,25077,25164,25057,24983,24901,24841,24947,25185,25628,26347,28201,27297,0,0,0,0,0,0,0,0,0,0,0,0,0,0,0,0,0,0,0,0,0,0,0,0,0,0,0,0,0,0,0,0,0,0,0,0,0,0,0,0,0,0,0,0,0,0,0,2230,2231,2223,0,0,0,0,0,0,0,0,0,0,0,2167,2171,2194,2197,2150,2161,2194,2196,2198,2197,2207,2207,2197,2190,2186,2185,2186,2190,2198,2211,2226,2248,2285,2307,2327,2348,2355,2365,2373,2382,2399,2391,2395,2397,2419,2402,2384,2420,2418,2413,2394,2387,2371,2357,2348,2343,2332,2327,2316,2316,2296,2294,2292,2288,2286,2285,2283,2283,2279,2272,2264,2254,2243,2231,2220,2211,2204,2202,2204,2212,2225,2242,2264,2288,2314,2340,2366,2391,2417,2444,2471,2499,2530,2566,2615,2644,2664,2670,2662,2662,2662,2663,2662,2666,2679,4723,4721,4717,4710,4698,4675,4649,4535,4479,4404,4268,4038,3484,3610,3559,3517,3477,3442,3413,3393,3368,3340,3306,3263,3218,3173,3134,3101,3074,3039,2867,2807,2780,2778,2781,2781,2779,2774,2764,2750,2727,2704,0,0,0,0,0,0,0,0,0,0,0,0,0,0,0,0,0,0,0,0,0,0,0,0,0,0,0,0,0,0,0,0,0,0,0,0,0,644,644,644,645,645,644,644,644,644,643,643,643,643,643,643,643,643,643,643,643,643,643,642,642,642,642,642,641,641,641,642,642,642,642,643,643,643,643,643,643,643,643,643,643,643,642,642,642,642,642,642,642,643,643,643,643,643,643,643,643,643,643,643,642,642,642,642,642,642,642,642,642,642,642,642,642,642,0,2092,2060,2063,2092,2092,0,0,0,0,0,0,3333,3245,3213,3188,3159,3129,3089,3058,3029,2999,2972,2946,2923,2906,2892,2882,2875,2865,0,0,0,0,0,0,0,0,0,0,0,0,0,0,65530,65525,65519,65506,65481,65434,65349,65195,64918,64431,63596,62212,60029,56829,52597,47774,43018,38794,35197,32072,29212,26438,23708,21098,18713,16805,15326,14126,13111,12209,11410,10771,10243,9806,9449,9158,8928,8747,8601,8479,8372,8273,8178,8080,7978,7865,7742,7611,7479,7352,7234,7128,7034,6954,6890,6841,6805,6778,6759,6743,6728,6710,6688,6664,6638,6615,6595,6580,6568,6559,6550,6542,6535,6531,6525,6519,6509,6504,6503,6513,6538,6576,6616,6673,6708,6729,6765,6786,6797,6778,6734,6699,6658,6620,6589,6563,6518,6521,6503,6471,6496,6513,6555,6717,6773,6882,6969,7153,7309,7434,7630,7661,7225,7908,7817,5675,5503,5338,5195,5029,4925,4843,4773,4704,4637,4564,4491,4428,4366,4307,4254,4206,4162,4122,4087,4056,4027,4001,3977,3954,3933,3913,3895,3880,3869,3860,3853,3846,3839,3830,3819,3805,3785,3770,3753,3733,8615,8655,8615,8543,8481,8405,8380,8331,8253,8128,8172,8020,7957,7880,7765,7674,7595,7554,7473,7399,7326,7257,7180,7119,7058,7006,6955,6905,6854,6805,6761,6726,6699,6680,6667,6658,6654,6652,6641,6579
0,0,0,0,0,20982,20548,19946,19482,18872,18234,17562,16795,15365,14611,14789,14631,14784,13771,13675,14409,14159,13896,13252,12722,12364,12354,10425,9917,9505,9289,9119,9004,8937,8910,8915,8946,8998,9066,9149,9245,9353,9470,9599,9740,9896,10068,10252,10440,10627,10807,10977,11141,11306,11481,11676,11876,12035,12205,12400,12234,11928,21158,19410,0,0,0,0,0,0,0,40794,0,24603,24863,24877,25027,25262,25130,25059,24964,24923,24989,25201,26997,29094,28722,0,0,0,0,0,0,0,0,0,0,0,0,0,0,0,0,0,0,0,0,0,0,0,0,0,0,0,0,0,0,0,0,0,0,0,0,0,0,0,0,0,0,0,0,0,0,2219,2223,2220,2233,2234,2231,0,0,0,0,0,0,0,0,0,0,2166,0,0,0,0,2211,0,2186,2183,2181,2173,2176,2169,2165,2163,2164,2167,2173,2182,2195,2210,2273,2270,2294,2322,2345,2348,2357,2374,2383,2391,2381,2382,2382,2376,2410,2367,2367,2362,2357,0,2292,2668,2668,2667,2662,2299,2285,2280,2277,2272,2271,2271,2269,2269,2269,2269,2269,2266,2262,2255,2247,2237,2226,2215,2206,2199,2196,2197,2203,2215,2231,2251,2274,2299,2324,2349,2373,2397,2420,2444,2466,2491,2527,2593,2625,2665,2675,0,2663,2665,2664,2662,2666,2670,2674,0,0,0,0,0,0,0,0,3906,3459,3325,3389,3427,3441,3417,3391,3368,3346,3329,3308,3281,3249,3208,3164,3119,3078,3043,3012,2965,2861,2809,2791,2783,2783,2782,2780,2773,2761,2744,2715,2693,2636,0,0,0,0,0,0,0,0,0,0,0,0,0,0,0,0,0,0,0,0,0,0,0,0,0,0,0,0,0,0,0,0,0,0,0,0,0,0,647,645,645,644,644,644,644,643,643,643,643,643,643,643,643,643,643,643,643,643,643,642,642,642,642,641,641,641,642,642,642,642,643,643,643,643,643,643,643,643,643,643,642,642,642,642,642,642,642,642,642,642,643,643,643,643,643,643,643,643,642,642,642,642,642,642,642,642,642,642,642,642,642,642,0,0,2091,2092,2066,2092,2092,0,0,0,0,3361,3300,3280,3253,3219,3190,3156,3121,3081,3044,3010,2976,2946,2919,2896,2879,2865,2856,2849,2843,0,0,0,0,0,0,0,0,0,0,0,0,0,0,0,65525,65519,65506,65481,65435,65351,65199,64925,64442,63614,62238,60064,56866,52620,47754,42937,38663,35050,31954,29159,26463,23799,21251,18806,16876,15391,14185,13170,12279,11497,10850,10309,9858,9486,9181,8939,8750,8599,8472,8362,8261,8164,8065,7962,7850,7728,7600,7469,7343,7226,7120,7026,6946,6883,6836,6803,6780,6765,6752,6740,6725,6706,6684,6659,6636,6614,6594,6575,6556,6538,6521,6506,6495,6487,6480,6474,6473,6475,6485,6503,6528,6553,6585,6605,6618,6640,6654,6660,6645,6614,6584,6547,6511,6476,6441,6396,6374,6341,6314,6267,6294,6314,6291,6396,6481,6622,6823,6966,6982,7020,7668,7652,5697,5625,5545,5412,5284,5165,5036,4942,4863,4790,4717,4646,4571,4499,4432,4368,4308,4253,4203,4159,4120,4085,4054,4027,4001,3977,3955,3935,3916,3898,3883,3870,3859,3849,3839,3828,3815,3801,3784,3765,3748,3731,3713,3690,3681,3609,8482,8416,8368,8330,8277,8224,8159,8068,7996,7953,7879,7740,7530,7570,7485,7449,7372,7297,7225,7136,7076,7015,6971,6927,6886,6842,6797,6754,6718,6690,6669,6654,6643,6641,6551,6524,6509
0,0,0,0,0,20298,20265,19596,19105,18392,17682,16969,16119,15020,14726,14376,14123,13255,13099,12972,13565,13289,12552,12341,11926,11563,11168,10178,9731,9396,9195,9048,8956,8911,8902,8923,8965,9025,9098,9182,9276,9381,9495,9620,9759,9914,10090,10285,10493,10709,10927,11142,11356,11575,11806,12059,12381,12700,13004,0,0,20109,20815,0,0,0,0,0,0,0,0,0,0,27219,27982,27685,27173,27150,28396,28493,25219,25188,28806,29452,0,0,0,0,0,0,0,0,0,0,0,0,0,0,0,0,0,0,0,0,0,0,0,0,0,0,0,0,0,0,0,0,0,0,0,0,0,0,0,0,0,0,0,0,0,0,0,0,2209,2211,2214,2218,2220,2222,2233,2232,2224,0,0,0,0,0,0,0,0,0,0,0,0,2198,2205,2194,2186,2178,2140,2149,2149,2145,2143,2143,2146,2151,2158,2168,2181,2196,0,2262,2282,2302,2341,2343,2357,2367,2389,2388,2372,2397,2398,2398,2353,2350,2328,2320,2315,2274,2691,2678,2678,2676,2667,2283,2271,2266,2240,2252,2253,2254,2255,2256,2258,2259,2260,2258,2255,2250,2243,2235,2224,2214,2205,2198,2194,2195,2200,2210,2225,2244,2265,2288,2311,2334,2356,2378,2397,2416,2433,2450,2489,0,0,0,0,0,0,2715,2673,2658,2663,2668,2672,2678,2683,2688,0,0,0,0,3043,3064,3224,3279,3273,3311,3322,3311,3298,3283,3268,3254,3235,3211,3180,3142,3100,3058,3019,2986,2955,2917,2849,2813,2798,2790,2789,2788,2786,2779,2766,2747,2706,2684,2646,0,2150,2148,2147,2147,0,0,0,0,0,0,0,0,0,0,0,0,0,0,0,0,0,0,0,0,0,0,0,0,0,0,0,0,0,0,0,0,0,647,645,645,645,644,644,644,643,643,643,643,643,643,643,643,643,643,643,643,643,643,642,642,642,642,642,641,641,642,642,642,642,643,643,643,643,643,643,643,643,643,643,642,642,642,642,642,642,642,642,642,642,642,642,643,643,643,643,642,642,642,642,642,642,642,642,642,642,642,642,642,642,642,642,642,0,2091,2091,2091,2091,0,0,0,0,3363,3344,3313,3287,3258,3224,3189,3152,3112,3069,3028,2989,2953,2921,2893,2870,2853,2839,2830,2824,2820,0,0,0,0,0,0,0,0,0,0,0,0,0,0,0,0,65519,65506,65482,65436,65352,65200,64928,64445,63618,62244,60071,56870,52611,47720,42867,38551,34917,31843,29121,26531,23982,21537,19072,17051,15553,14317,13277,12370,11581,10920,10363,9896,9509,9186,8931,8733,8574,8441,8327,8223,8124,8026,7926,7818,7702,7579,7454,7333,7218,7114,7021,6943,6881,6835,6804,6783,6770,6761,6752,6741,6726,6706,6684,6660,6636,6611,6587,6561,6535,6511,6489,6472,6460,6452,6448,6449,6454,6464,6479,6497,6513,6530,6541,6548,6561,6570,6573,6562,6541,6517,6487,6454,6418,6378,6330,6292,6248,6155,6147,6145,6144,6128,6182,6230,6300,6386,6476,6284,6015,5724,5669,5593,5516,5437,5331,5228,5131,5029,4947,4873,4800,4726,4653,4576,4503,4435,4371,4310,4253,4203,4158,4119,4084,4053,4025,4000,3977,3955,3935,3917,3899,3884,3870,3857,3844,3831,3817,3801,3784,3765,3745,3727,3710,3692,3672,3655,3637,3623,3564,8366,8333,8263,8214,8155,8111,7956,7989,7918,7620,7789,7640,7555,7464,7383,7302,7225,7114,7052,6987,6958,6918,6888,6848,6807,6764,6725,6692,6669,6651,6637,6563,6557,6514,6457
0,0,0,0,0,0,0,19330,18828,18071,17293,16658,16101,15181,14344,13930,12817,12611,12407,12232,12723,12405,11674,11437,11111,10785,10440,9801,9479,9223,9063,8954,8895,8875,8889,8926,8981,9048,9124,9209,9301,9403,9514,9636,9775,9934,10119,10332,10567,10823,11091,11366,11646,11939,12251,12598,13026,13978,14808,15831,16809,20310,20759,25391,29556,0,0,0,0,0,0,0,0,0,0,0,30405,31600,30401,30359,30360,29873,0,0,0,0,0,0,0,0,0,0,0,0,0,0,0,0,0,0,0,0,0,0,0,0,0,0,0,0,0,0,0,0,0,0,0,0,0,0,0,0,0,0,0,0,0,0,0,0,0,2200,2203,2209,2212,2215,2217,2219,2220,2220,2230,2229,0,0,0,0,0,0,0,0,0,0,0,2225,2200,2188,2177,2164,2125,2127,2126,2124,2123,2125,2130,2137,2146,2157,2171,2222,0,2248,2265,2284,2301,2333,2344,2359,2368,2351,2349,2345,2339,2327,2324,2324,2313,2306,2301,2696,2694,2687,2687,2682,2286,2276,2257,2227,2230,2237,2239,2242,2245,2248,2251,2253,2254,2254,2252,2248,2242,2235,2226,2216,2207,2200,2197,2197,2202,2212,2226,2243,2262,2283,2304,2324,2344,2362,2378,2392,2403,2413,2423,0,0,0,0,0,0,0,0,2647,2654,2661,2667,2675,2682,2692,2709,2724,2739,2801,2948,3036,3060,3106,3148,3196,3209,3207,3202,3194,3183,3171,3154,3132,3103,3068,3031,2995,2962,2934,2909,2881,2839,2815,2804,2799,2800,2800,2799,2794,2781,2762,2703,2678,0,0,2149,2147,2146,2146,0,0,0,0,0,0,0,0,0,0,0,0,0,0,0,0,0,0,0,0,0,0,0,0,0,0,0,0,0,0,0,0,0,646,646,645,645,644,644,644,643,643,643,643,643,643,643,643,643,643,643,643,643,643,642,642,642,642,642,642,642,642,642,642,642,643,643,643,643,643,643,643,643,643,642,642,642,642,642,642,642,642,642,642,642,642,642,642,642,642,642,642,642,642,642,642,642,642,642,642,642,642,642,642,642,642,642,0,0,0,0,0,3434,3429,3414,3412,3392,3368,3348,3320,3292,3261,3225,3187,3145,3102,3056,3012,2970,2931,2897,2869,2846,2828,2815,2807,2801,2799,0,0,0,0,0,0,0,0,0,0,0,0,0,0,0,65525,65519,65507,65483,65438,65356,65206,64939,64461,63645,62287,60135,56960,52721,47833,42960,38598,34911,31817,29132,26613,24148,21760,19403,17414,15832,14517,13421,12477,11665,10983,10409,9926,9523,9178,8908,8698,8530,8389,8269,8162,8063,7964,7868,7767,7660,7545,7428,7313,7204,7104,7014,6938,6877,6833,6803,6783,6772,6765,6760,6753,6742,6726,6705,6681,6655,6628,6599,6568,6537,6506,6480,6458,6443,6433,6429,6430,6436,6446,6458,6471,6481,6490,6495,6498,6504,6509,6511,6505,6492,6475,6453,6425,6391,6349,6298,6250,6197,6126,6087,6062,6042,6018,6035,6050,6068,6012,5974,5941,5735,5642,5572,5497,5423,5350,5264,5181,5102,5020,4948,4878,4806,4733,4659,4578,4507,4437,4374,4313,4256,4205,4160,4120,4084,4053,4024,3998,3975,3954,3934,3916,3899,3883,3868,3854,3839,3824,3808,3790,3770,3749,3728,3709,3691,3672,3654,3637,3620,3600,3588,8447,8320,8262,8200,8157,8115,8135,8034,7988,7890,7847,7722,7603,7530,7419,7333,7253,7112,7071,6974,6952,6922,6905,6871,6834,6788,6745,6707,6681,6661,6645,6626,6615,6613,6552
0,0,0,0,0,0,0,0,18672,18122,17012,16380,15839,14935,13878,12608,12166,11885,11633,11413,11212,11536,10771,10553,10301,10044,9787,9400,9178,9009,8907,8846,8825,8837,8874,8929,8995,9069,9148,9232,9322,9421,9530,9653,9794,9960,10159,10396,10665,10967,11292,11632,11983,12349,12738,13167,13677,14561,15410,16395,17622,20021,21273,22453,0,0,0,0,0,0,0,0,0,0,0,0,0,0,0,0,0,0,0,0,0,0,0,0,0,0,0,0,0,0,0,0,0,0,0,0,0,0,0,0,0,0,0,0,0,0,0,0,0,0,0,0,0,0,0,0,0,0,0,0,0,0,0,0,0,0,0,2205,2205,2209,2211,2213,2216,2217,2219,2219,2218,2217,2191,2187,2184,0,0,0,0,0,0,0,0,2202,2194,2180,2165,2147,2106,2106,2104,2103,2105,2108,2115,2124,2135,2148,2162,2187,2227,2239,2256,2273,2292,2309,2334,2352,2364,2345,2342,2337,2331,2318,2312,2292,2274,2264,2258,2256,2697,2692,2692,2280,2270,2261,2216,2217,2220,2225,2228,2233,2237,2242,2246,2249,2251,2252,2251,2248,2243,2237,2229,2220,2213,2207,2204,2204,2209,2219,2232,2248,2265,2284,2303,2321,2337,2352,2365,2375,2383,2388,2374,2355,2361,0,0,0,0,0,2611,2627,2637,2647,2657,2668,2679,2691,2709,2727,2748,2794,2865,2923,2965,3022,3060,3095,3109,3113,3112,3107,3099,3089,3073,3052,3026,2996,2965,2936,2910,2889,2872,2853,2830,2816,2811,2811,2815,2819,2822,2820,2811,2794,0,2633,0,0,2146,2145,2145,2144,0,0,0,0,0,0,0,0,0,0,0,0,0,0,0,0,0,0,0,0,0,0,0,0,0,0,0,0,0,0,0,0,0,647,646,646,645,645,644,644,643,643,643,643,642,642,642,642,643,643,643,643,643,643,643,642,642,642,642,642,642,642,642,642,642,643,643,643,643,643,643,643,643,643,642,642,642,642,642,642,642,642,642,642,642,642,642,642,642,642,642,642,642,642,642,642,643,643,643,642,642,642,642,642,642,642,642,0,0,0,3360,3387,3396,3403,3406,3401,3389,3370,3349,3322,3293,3260,3223,3182,3137,3091,3043,2996,2952,2911,2877,2848,2825,2808,2795,2786,2781,2781,0,0,0,0,0,0,0,0,0,0,0,0,0,0,0,65526,65520,65508,65485,65443,65365,65222,64967,64505,63719,62410,60328,57239,53086,48246,43377,38964,35196,32042,29358,26881,24484,22150,19829,17845,16157,14738,13576,12584,11743,11039,10449,9951,9533,9162,8874,8654,8478,8327,8201,8092,7991,7892,7799,7704,7605,7499,7391,7284,7183,7089,7004,6933,6875,6832,6802,6783,6773,6767,6764,6760,6751,6741,6720,6696,6669,6639,6606,6572,6537,6504,6474,6450,6431,6419,6413,6413,6418,6425,6435,6444,6449,6453,6453,6452,6454,6457,6459,6456,6450,6440,6425,6404,6374,6334,6284,6232,6176,6112,6064,6027,5994,5963,5954,5946,5938,5890,5845,5795,5655,5569,5496,5424,5354,5288,5216,5148,5081,5013,4948,4882,4813,4740,4666,4580,4509,4439,4377,4317,4261,4210,4164,4123,4086,4053,4023,3997,3973,3952,3933,3915,3898,3882,3866,3851,3835,3819,3802,3782,3761,3738,3716,3695,3676,3657,3637,3620,3603,3586,3573,3551,3551,8241,8195,8145,8146,8074,7979,8017,8014,7891,7751,7653,7549,7460,7367,7320,7241,7108,6940,6982,6934,6929,6903,6865,6817,6772,6707,6682,6664,6648,6633,6812,6622,6528
0,0,0,0,0,0,0,0,0,0,17130,16224,15696,15649,12531,11769,11376,11059,10653,10378,10186,10007,9910,9738,9551,9382,9217,9002,8877,8792,8751,8741,8759,8801,8861,8933,9010,9090,9171,9254,9343,9440,9549,9673,9820,9997,10215,10480,10786,11135,11516,11917,12331,12759,13207,13695,14261,15095,15982,17068,18341,20322,21864,24173,0,0,0,0,0,0,0,0,0,0,0,0,0,0,0,0,0,0,0,0,0,0,0,0,0,0,0,0,0,0,0,0,0,0,0,0,0,0,0,0,0,0,0,0,0,0,0,0,0,0,0,0,0,0,0,0,0,0,0,0,0,0,0,0,0,0,2210,2210,2209,2211,2212,2214,2215,2217,2219,2220,2220,2219,2216,2222,2211,2172,2162,2185,0,2282,0,0,2214,2206,2189,2171,2150,2126,2087,2085,2084,2084,2087,2092,2101,2111,2124,2139,2154,2181,2198,2263,2279,2262,2281,2298,2321,2321,2331,2340,2337,2331,2324,2302,2289,2276,2261,2251,2245,2243,2245,2247,2248,2247,2216,2203,2206,2208,2211,2216,2221,2226,2232,2238,2243,2247,2250,2251,2250,2248,2245,2240,2233,2226,2220,2215,2213,2215,2220,2229,2242,2257,2274,2291,2308,2324,2339,2351,2361,2369,2373,2376,2368,2358,2358,2362,2374,0,0,0,2581,2597,2611,2626,2640,2654,2669,2685,2704,2724,2747,2783,2832,2874,2911,2952,2984,3012,3026,3033,3034,3031,3024,3015,3000,2981,2958,2932,2908,2885,2867,2853,2842,2833,2822,2818,2819,2825,2833,2842,2849,2853,2847,2827,0,0,0,0,0,0,0,0,0,0,0,0,0,0,0,0,0,0,0,0,0,0,0,0,0,0,0,0,0,0,0,0,0,0,0,0,0,0,0,0,0,647,646,646,645,645,644,644,643,643,643,643,642,642,642,642,642,643,643,643,643,643,643,642,642,642,642,642,642,642,642,642,643,643,643,643,643,643,643,643,643,642,642,642,642,642,642,642,642,642,642,642,642,642,642,642,642,642,642,642,642,642,642,642,642,642,642,642,642,642,642,642,642,642,642,0,0,3297,3324,3347,3374,3386,3392,3391,3382,3365,3345,3319,3288,3255,3216,3174,3128,3079,3030,2981,2935,2894,2859,2830,2807,2790,2778,2769,2765,2767,0,0,0,0,0,0,0,0,0,0,0,0,0,0,65531,65527,65522,65511,65490,65451,65380,65249,65015,64578,63844,62616,60654,57718,53723,48988,44156,39701,35836,32587,29871,27392,25029,22726,20358,18344,16510,14955,13721,12681,11809,11085,10482,9973,9544,9141,8836,8609,8427,8267,8137,8026,7923,7819,7728,7637,7546,7447,7347,7249,7157,7072,6995,6930,6877,6836,6808,6788,6777,6770,6766,6762,6755,6746,6727,6702,6675,6643,6608,6572,6535,6501,6470,6444,6423,6408,6400,6398,6400,6404,6410,6414,6415,6414,6410,6407,6406,6408,6410,6412,6411,6408,6400,6385,6360,6324,6278,6227,6173,6113,6064,6021,5982,5945,5920,5896,5870,5821,5768,5709,5600,5518,5445,5375,5310,5249,5187,5128,5070,5010,4950,4888,4821,4750,4677,4582,4513,4440,4382,4323,4268,4217,4170,4127,4089,4054,4023,3996,3972,3952,3933,3915,3898,3881,3865,3848,3832,3815,3797,3777,3755,3732,3709,3686,3665,3645,3625,3606,3589,3573,3561,3546,3535,3532,3533,0,8101,8055,7960,7883,7886,7794,7673,7593,7576,7504,7405,7332,7217,7011,7040,7006,6944,6973,6957,6913,6857,6759,6729,6701,6688,6680,6672,6669,0,0
0,0,0,0,0,0,0,0,0,0,0,0,14487,13759,11601,11022,10474,10220,9910,9621,9445,9288,9187,9061,8940,8843,8759,8662,8617,8602,8616,8651,8705,8774,8855,8940,9026,9110,9192,9275,9363,9460,9570,9699,9853,10042,10282,10579,10921,11313,11743,12193,12653,13122,13606,14127,14723,15530,16445,17628,19034,20904,22338,24616,0,0,0,0,0,0,0,0,0,0,0,0,0,0,0,0,0,0,0,0,0,0,0,0,0,0,0,0,0,0,0,0,0,0,0,0,0,0,0,0,0,0,0,0,0,0,0,0,0,0,0,0,0,0,0,0,0,0,0,0,0,0,0,0,0,0,0,2219,2217,2216,2216,2216,2217,2219,2220,2222,2223,2223,2220,2215,2211,2200,2147,0,0,2287,2321,2316,2288,2212,2185,2163,2136,2074,2068,2065,2064,2065,2070,2077,2087,2099,2114,2130,2146,2174,2191,2187,2201,2244,2255,2276,2282,0,2314,2308,2306,2301,2296,2290,2274,2261,2248,2239,2233,2230,2230,2231,2232,2193,2196,2196,2198,2201,2204,2210,2215,2222,2229,2236,2242,2247,2249,2251,2251,2249,2246,2242,2237,2232,2227,2224,2223,2226,2232,2241,2254,2269,2285,2302,2319,2334,2347,2359,2367,2372,2375,2375,2370,2364,2365,2370,2383,2407,2430,2462,2533,2559,2580,2599,2617,2635,2653,2672,2693,2714,2737,2767,2803,2835,2865,2895,2924,2949,2964,2972,2975,2972,2965,2956,2942,2925,2904,2882,2862,2845,2832,2824,2819,2816,2816,2819,2826,2837,2850,2864,2877,2886,2891,2897,0,0,0,0,0,0,0,0,0,0,0,0,0,0,0,0,0,0,0,0,0,0,0,0,0,0,0,0,0,0,0,0,0,0,0,0,0,0,0,0,0,647,647,646,646,645,645,644,644,643,643,643,642,642,642,642,642,642,643,643,643,643,643,642,642,642,642,642,642,642,642,642,643,643,643,643,643,643,643,643,643,642,642,642,642,642,642,642,642,642,642,642,642,642,642,642,642,642,642,642,642,642,642,642,642,642,642,642,642,642,642,642,642,642,642,0,3231,3271,3297,3322,3348,3364,3374,3376,3370,3355,3336,3309,3278,3244,3205,3163,3116,3067,3017,2968,2921,2879,2843,2814,2791,2775,2763,2755,2751,2759,0,0,0,0,0,0,0,0,0,0,0,0,0,0,0,65528,65523,65514,65496,65462,65400,65284,65076,64665,63993,62865,61049,58304,54515,49932,45171,40697,36745,33392,30639,28130,25781,23493,20975,18915,16872,15136,13836,12753,11856,11119,10507,9993,9560,9042,8792,8567,8385,8216,8084,7974,7868,7754,7663,7574,7490,7396,7304,7216,7134,7059,6993,6935,6888,6852,6824,6805,6791,6782,6775,6768,6761,6747,6727,6702,6673,6640,6604,6567,6531,6497,6467,6440,6419,6403,6393,6388,6387,6388,6389,6389,6385,6380,6373,6368,6365,6366,6370,6374,6379,6381,6379,6370,6350,6320,6279,6231,6180,6125,6076,6032,5990,5949,5915,5880,5842,5789,5730,5663,5569,5490,5417,5349,5287,5229,5173,5120,5067,5012,4956,4897,4833,4766,4696,4583,4518,4441,4388,4330,4275,4224,4176,4132,4092,4056,4024,3997,3973,3953,3934,3916,3899,3881,3863,3846,3829,3812,3794,3774,3752,3728,3704,3681,3658,3636,3615,3596,3579,3563,3552,3540,3532,3528,3524,3526,3542,0,0,7623,7562,7519,7571,7557,7488,7576,7373,0,7077,7153,7009,7001,7028,7019,6934,6931,6730,6893,6908,6936,6951,6963,6966,6971,0,0
0,0,0,0,0,0,0,0,0,0,0,0,14137,9489,9924,10376,9730,9468,9045,8953,8819,8716,8635,8556,8490,8448,8424,8404,8417,8455,8513,8584,8666,8756,8853,8949,9041,9129,9211,9293,9382,9478,9591,9725,9887,10088,10352,10683,11056,11484,11950,12434,12920,13406,13901,14427,15022,15800,16713,17975,19478,21303,23260,27417,0,0,0,0,0,0,0,0,0,0,0,0,0,0,0,0,0,0,0,0,0,0,0,0,0,0,0,0,0,0,0,0,0,0,0,0,0,0,0,0,0,0,0,0,0,0,0,0,0,0,0,0,0,0,0,0,0,3230,3227,3214,3229,0,0,0,0,0,2252,2231,2227,2224,2222,2221,2221,2222,2225,2227,2228,2232,2217,2224,2223,2197,2162,2212,0,0,2334,2329,2312,2303,2340,0,2057,2051,2047,2045,2045,2048,2054,2063,2074,2088,2104,2122,2138,2188,2184,2172,2185,2197,2243,2251,2256,0,0,2295,2292,2288,2285,2278,2243,2237,2231,2227,2221,2251,2193,2188,2188,2187,2190,2190,2193,2195,2200,2206,2213,2220,2228,2236,2242,2246,2249,2250,2250,2249,2247,2244,2240,2235,2232,2230,2231,2235,2242,2252,2265,2281,2298,2315,2332,2348,2362,2373,2380,2383,2384,2383,2378,2373,2373,2377,2387,2405,2425,2452,2498,2526,2549,2571,2591,2612,2632,2653,2675,2697,2720,2746,2775,2801,2826,2851,2880,2908,2923,2931,2935,2931,2922,2913,2900,2883,2864,2845,2828,2814,2805,2800,2799,2802,2809,2818,2831,2846,2863,2881,2897,2910,2923,2941,0,0,0,0,0,0,0,0,0,0,0,0,0,0,0,0,0,0,0,0,0,0,0,0,0,0,0,0,0,0,0,0,0,0,0,0,0,0,0,0,0,647,647,647,646,645,645,644,644,643,643,643,642,642,642,642,642,642,643,643,643,643,643,642,642,642,642,642,642,642,642,642,643,643,643,643,643,643,643,643,642,642,642,642,642,642,642,642,642,642,642,642,642,642,642,642,642,642,642,642,642,642,642,642,642,642,642,642,642,642,642,642,642,641,0,3188,3214,3245,3270,3294,3319,3338,3351,3356,3352,3340,3320,3294,3262,3228,3190,3148,3103,3054,3004,2955,2906,2864,2827,2798,2776,2760,2749,2742,2739,2748,0,0,0,0,0,0,0,0,0,0,0,0,0,0,0,65529,65525,65517,65503,65475,65424,65322,65145,64744,64129,63092,61412,58850,55264,50842,46168,41700,37691,34252,31517,28996,26695,24462,21658,19609,17229,15244,13900,12791,11878,11131,10513,9991,9549,9072,8763,8538,8360,8179,8046,7939,7830,7699,7607,7520,7444,7356,7271,7193,7122,7058,7003,6955,6914,6882,6857,6837,6820,6806,6793,6780,6767,6749,6726,6700,6668,6634,6597,6561,6526,6493,6465,6440,6420,6404,6393,6387,6383,6380,6377,6372,6365,6356,6347,6339,6336,6337,6341,6347,6355,6362,6364,6359,6345,6319,6283,6241,6193,6143,6096,6050,6007,5964,5924,5882,5837,5781,5717,5646,5560,5481,5408,5341,5280,5224,5171,5120,5070,5019,4965,4909,4850,4788,4727,4578,4528,4442,4398,4340,4285,4232,4183,4137,4095,4059,4027,4000,3976,3955,3936,3918,3899,3881,3862,3843,3826,3808,3790,3771,3749,3725,3701,3677,3653,3631,3609,3589,3571,3556,3545,3534,3527,3523,3518,3516,3508,3505,0,0,0,0,0,0,0,0,0,0,7470,7449,7444,7407,7138,7202,7259,7242,0,0,7010,7091,7126,7156,7171,7183,0,0
