0,0,0,0,0,0,0,0,0,0,0,0,0,0,0,0,0,0,0,0,9501,8193,8092,8051,8100,8165,8257,8385,8563,8880,8659,8916,14716,15515,16695,17795,18839,19858,20843,21792,22637,23370,23930,24335,24614,24850,25019,25118,25130,25030,24804,24441,23932,23268,22442,21458,20372,19279,18264,17378,16731,16262,15938,15733,15613,15550,15530,15522,15488,15522,15570,15719,16018,16350,16660,16965,17268,17523,17760,18031,18367,18767,19232,19809,20397,21180,21983,0,0,0,0,0,0,0,0,0,0,0,0,0,0,0,0,0,0,0,0,0,0,0,0,0,0,0,0,0,0,0,0,0,0,0,0,0,0,0,0,0,0,0,0,0,0,0,0,0,0,0,0,0,0,0,0,0,0,0,0,0,0,0,0,0,0,0,0,0,0,0,0,0,0,0,0,0,0,0,0,0,4197,4178,3971,4215,4165,4016,3789,0,0,0,0,0,0,2161,2162,2168,2170,2173,2176,2179,2185,2191,2201,2212,2226,2241,2258,2276,2294,2311,2344,2387,2411,2445,2492,2523,2551,2579,2605,2630,2654,2679,2706,2735,2768,2804,2839,2873,2906,2939,2973,3010,3048,3086,3127,3169,3184,14250,14394,14596,14553,14261,14384,14298,14240,14119,14258,14423,14667,14957,15334,15806,16326,16861,17374,17849,18274,18653,18991,19295,19581,19860,20148,20457,20783,21143,21515,21898,22284,22688,23185,23809,24696,25974,27813,30479,33999,38636,44100,49404,54133,57883,60502,62047,63072,0,0,0,0,0,0,0,0,0,0,0,0,0,0,0,0,0,0,0,63368,63132,63019,63065,63301,63685,64086,64201,0,0,0,0,6546,6515,6501,6460,6470,6451,49482,46835,48089,46621,33360,33893,0,0,0,0,0,0,0,0,0,0,0,0,0,2126,2114,2103,2093,2083,2073,2063,2055,2048,2042,2038,2034,2031,2028,2026,2025,2024,0,0,0,0,0,0,0,0,0,0,0,0,0,0,0,0,0,0,0,0,0,0,0,0,0,0,0,0,0,0,0,0,0,0,0,0,0,0,0,0,0,0,0,0,0,0,0,0,0,0,0,0,0,0,0,0,0,0,0,0,0,0,0,0,0,0,0,0,0,0,0,0,0,0,0,0,0,0,0,0,0,0,0,0,0,0,0,0,0,0,0,0,0,0,0,0,0,0,0,0,0,0,0,0,0,0,0,0,0,0,0,0,0,0,0,0,0,0,0,0,0,0,0,0,0,0,0,0,0,0,0,0,0,0,0,0,0,0,0,0,0,0,0,0,0,0,0,0,0,0,0,0,0,0,0,0,0,0,0,0,0,0,0,65407,65334,65253,65095,65129,65175,65024,64846,64641,64418,64167,63922,63488,62969,62348,61714,61141,60673,60326,60083,59850,59494,58851,57734,55992,53588,50669,47538,44515,41833,39583,37776,36355,35244,34357,33606,32917,32262,31615,30945,30185,29247,28057,26648,25164,23755,22527,21518,20708,20039,19476,18979,18531,18130,17776,17462,17177,17901,17160,16813,16426,16010,15564,15117,14690,14300,13957,13666,13428,13236,13075,12924,12761,12567,12343,12073,11796,11530,11284,11064,10870,10699,10547,10408,10283,10169,10067,9977,9897,9822,9746,9667,9578,9477,9357,9216,9054,8871,8670,8485,8319,8176,8051,7955,7877,7808,7740,7670,7593,7513,7435,7358,7290,7227,7168,7113,7064,7022,6986,6957,6936,6923,6916,6918,6925,6937,6952,6967,6941,6809,6815
0,0,0,0,0,0,0,0,0,0,0,0,0,0,0,0,0,0,0,0,0,7245,7230,7223,8189,8272,8392,8544,8748,9074,8840,9159,13236,14558,15993,17290,18486,19624,20693,21694,22574,23307,23856,24233,24472,24639,24735,24766,24724,24591,24360,24017,23542,22915,22110,21120,20006,18882,17848,16975,16326,15857,15528,15310,15172,15094,15065,15068,15083,15157,15269,15464,15764,16100,16435,16766,17093,17392,17684,18008,18394,18852,19389,20034,20737,21601,22543,23926,0,0,0,0,0,0,0,0,0,0,0,0,0,0,0,0,0,0,0,0,0,0,0,0,0,0,0,0,0,0,0,0,0,0,0,0,0,0,0,0,0,0,0,0,0,0,0,0,0,0,0,0,0,0,0,0,0,0,0,0,0,0,0,0,0,0,0,0,0,0,0,0,0,0,0,0,0,0,0,0,4149,4127,4244,4129,3833,3816,3794,3800,0,0,0,0,0,0,2162,2169,2171,2173,2176,2180,2185,2192,2201,2213,2227,2243,2260,2278,2297,2316,2359,2384,2453,2452,2486,2515,2543,2572,2600,2626,2652,2680,2707,2738,2772,2809,2845,2881,2915,2950,2987,3026,3068,3108,3147,3181,3213,14046,14160,14224,14151,13945,13945,13844,13764,13670,13732,13837,14017,14261,14590,15006,15479,15980,16481,16960,17406,17819,18200,18553,18887,19215,19549,19897,20260,20645,21042,21448,21863,22301,22824,23484,24397,25691,27527,30234,33734,38043,43041,48092,52814,56773,59671,61456,62715,0,0,0,0,0,0,0,0,0,0,0,0,0,0,0,0,0,61613,0,62248,61952,61836,61933,62281,62821,63403,63713,63967,0,0,0,6541,6521,6496,6477,6461,6448,6432,46669,45055,43000,33770,0,0,0,0,0,0,0,917,0,0,0,0,0,2137,2132,2121,2111,2100,2089,2078,2067,2058,2050,2044,2039,2035,2031,2029,2027,2025,2019,0,0,0,0,0,0,0,0,0,0,0,0,0,0,0,0,0,0,0,0,0,0,0,0,0,0,0,0,0,0,0,0,0,0,0,0,0,0,0,0,0,0,0,0,0,0,0,0,0,0,0,0,0,0,0,0,0,0,0,0,0,0,0,0,0,0,0,0,0,0,0,0,0,0,0,0,0,0,0,0,0,0,0,0,0,0,0,0,0,0,0,0,0,0,0,0,0,0,0,0,0,0,0,0,0,0,0,0,0,0,0,0,0,0,0,0,0,0,0,0,0,0,0,0,0,0,0,0,0,0,0,0,0,0,0,0,0,0,0,0,0,0,0,0,0,0,0,0,0,0,0,0,0,0,0,0,0,0,0,0,0,0,0,0,65382,65282,65132,65048,65099,64792,64575,64352,64140,64057,63777,63402,62901,62292,61638,61020,60492,60081,59776,59497,59108,58451,57336,55615,53268,50437,47394,44441,41805,39578,37782,36366,35258,34375,33627,32941,32288,31641,30971,30212,29277,28092,26686,25203,23795,22564,21548,20734,20054,19483,18978,18525,18122,17770,17466,17202,17155,16975,16660,16305,15923,15523,15126,14749,14404,14096,13828,13602,13410,13238,13067,12878,12659,12418,12122,11838,11568,11322,11105,10915,10751,10604,10470,10347,10233,10128,10034,9948,9866,9784,9696,9602,9496,9376,9237,9079,8903,8715,8537,8375,8233,8108,8007,7920,7842,7765,7688,7607,7526,7448,7375,7309,7249,7194,7142,7095,7055,7021,6992,6970,6953,6943,6941,6946,6955,6968,6983,7003,7015,6808
0,0,0,0,0,0,0,0,0,0,0,0,0,0,0,0,0,0,7368,7310,7276,7237,7624,8054,8186,8271,8457,8621,8830,9140,9829,10429,12196,13567,15306,16808,18142,19389,20530,21578,22491,23226,23768,24125,24330,24442,24475,24442,24343,24163,23907,23556,23084,22462,21659,20659,19531,18400,17372,16524,15892,15435,15114,14897,14760,14687,14671,14701,14765,14888,15060,15302,15622,15974,16329,16677,17015,17335,17652,17999,18411,18905,19491,20192,20995,21982,23161,24802,28921,31850,0,0,0,0,0,0,0,0,0,0,0,0,0,0,0,0,0,0,0,0,0,0,0,0,0,0,0,0,0,0,0,0,0,0,0,0,0,0,0,0,0,0,0,0,0,0,0,0,0,0,0,0,0,0,0,0,0,0,0,0,0,0,0,0,0,0,0,0,0,0,0,0,0,0,0,0,0,0,4107,3907,3885,3854,3835,3837,3821,3812,0,0,0,0,0,0,2162,2170,2171,2174,2177,2180,2186,2193,2202,2214,2227,2243,2260,2278,2296,2315,2340,2423,2453,2446,2478,2507,2535,2565,2594,2622,2650,2680,2709,2741,2777,2816,2853,2889,2925,2962,3000,3042,3084,3124,3161,3188,0,13926,13952,13939,13843,13674,13606,13491,13394,13307,13319,13378,13502,13690,13953,14291,14685,15116,15562,16009,16446,16871,17284,17682,18068,18450,18832,19219,19615,20025,20445,20877,21327,21810,22379,23089,24039,25354,27179,29982,33500,37470,41982,46685,51316,55445,58622,60651,62275,0,0,0,0,0,0,0,0,0,0,0,0,0,0,0,0,0,58961,60197,60878,60709,60659,60843,61299,61959,62703,62541,63520,0,0,0,6545,6521,6497,6475,6458,6437,6425,38089,37098,36523,6520,6400,6425,0,0,0,0,0,0,0,0,0,0,0,2143,2136,2128,2118,2107,2095,2082,2070,2060,2051,2045,2040,2035,2032,2029,2027,2025,2022,0,0,0,0,0,0,0,0,0,0,0,0,0,0,0,0,0,0,0,0,0,0,0,0,0,0,0,0,0,0,0,0,0,0,0,0,0,0,0,0,0,0,0,0,0,0,0,0,0,0,0,0,0,0,0,0,0,0,0,0,0,0,0,0,0,0,0,0,0,0,0,0,0,0,0,0,0,0,0,0,0,0,0,0,0,0,0,0,0,0,0,0,0,0,0,0,0,0,0,0,0,0,0,0,0,0,0,0,0,0,0,0,0,0,0,0,0,0,0,0,0,0,0,0,0,0,0,0,0,0,0,0,0,0,0,0,0,0,0,0,0,0,0,0,0,0,0,0,0,0,0,0,0,0,0,0,0,0,0,0,0,0,65435,65342,65303,65148,65069,64818,64905,64669,64197,63962,63770,63815,63579,63251,62800,62202,61524,60852,60246,59741,59341,58965,58483,57750,56581,54846,52551,49837,46936,44115,41586,39435,37691,36309,35225,34358,33619,32940,32289,31645,30978,30226,29303,28133,26741,25266,23858,22617,21588,20745,20063,19484,18976,18523,18122,17773,17473,17212,17071,16850,16547,16210,15855,15493,15140,14807,14503,14229,13986,13774,13584,13403,13214,13003,12761,12511,12180,11888,11613,11364,11146,10959,10798,10657,10528,10408,10295,10189,10091,9998,9908,9815,9718,9615,9505,9384,9249,9098,8932,8756,8588,8433,8294,8172,8068,7976,7892,7810,7728,7645,7564,7487,7416,7353,7295,7241,7191,7147,7109,7076,7048,7024,7004,6988,6980,6982,6986,6996,7008,7023,7036,7448
0,0,0,0,0,0,0,0,0,0,0,0,0,0,0,0,0,7012,7196,7197,7181,7249,7429,7524,8086,8261,8428,8596,8792,9062,9564,10071,10844,11916,14755,16475,17915,19240,20417,21488,22414,23137,23664,23998,24168,24233,24213,24120,23963,23723,23422,23033,22530,21883,21058,20048,18927,17818,16829,16028,15434,15006,14708,14509,14390,14341,14354,14421,14535,14705,14927,15209,15547,15912,16277,16631,16970,17293,17613,17962,18379,18886,19495,20229,21099,22191,23591,25577,29477,33416,40938,47064,52962,56827,59899,0,0,0,0,0,0,0,0,0,0,0,0,0,0,0,0,0,0,0,0,0,0,0,0,0,0,0,0,0,0,0,0,0,0,0,0,0,0,0,0,0,0,0,0,0,0,0,0,0,0,0,0,0,0,0,0,0,0,0,0,0,0,0,0,0,0,0,0,0,0,0,0,0,3901,3897,3877,3854,3841,3843,3832,3825,0,0,0,0,0,0,2162,2170,2172,2174,2177,2181,2186,2193,2202,2214,2227,2243,2260,2278,2296,2316,2340,2417,2448,2480,2511,2538,2525,2558,2588,2616,2647,2680,2709,2744,2780,2823,2861,2899,2936,2974,3014,3056,3098,3137,3171,3194,0,13778,13757,13704,13597,13446,13344,13221,13114,13026,13006,13029,13106,13239,13433,13688,13992,14335,14703,15090,15489,15900,16322,16749,17178,17609,18039,18467,18897,19336,19783,20246,20733,21261,21875,22627,23601,24908,26677,29648,33297,36941,40990,45312,49785,54019,57422,59647,61791,0,0,0,0,0,0,0,0,0,0,0,0,0,0,0,0,60392,59267,59495,59861,59901,59960,60237,60756,61438,61756,61296,0,0,0,0,6554,6512,6483,6457,6438,6413,6417,37237,37068,6486,6506,6289,6290,6275,0,0,0,0,0,0,0,0,0,0,2146,2141,2133,2124,2113,2100,2086,2073,2062,2053,2046,2040,2035,2032,2029,2027,2026,2023,0,0,0,0,0,0,0,0,0,0,0,0,0,0,0,0,0,0,0,0,0,0,0,0,0,0,0,0,0,0,0,0,0,0,0,0,0,0,0,0,0,0,0,0,0,0,0,0,0,0,0,0,0,0,0,0,0,0,0,0,0,0,0,0,0,0,0,0,0,0,0,0,0,0,0,0,0,0,0,0,0,0,0,0,0,0,0,0,0,0,0,0,0,0,0,0,0,0,0,0,0,0,0,0,0,0,0,0,0,0,0,0,0,0,0,0,0,0,0,0,0,0,0,0,0,0,0,0,0,0,0,0,0,0,0,0,0,0,0,0,0,0,0,0,0,0,0,0,0,0,0,0,0,0,0,0,0,0,0,0,0,0,65423,65311,65188,64944,64847,64491,63094,63542,63689,63453,63300,63526,63345,63068,62651,62062,61349,60628,59945,59344,58827,58337,57713,56872,55602,53823,51573,48986,46254,43604,41221,39188,37531,36212,35172,34332,33609,32938,32289,31644,30980,30235,29328,28180,26810,25350,23945,22694,21647,20786,20091,19502,18991,18542,18147,17804,17506,17241,17040,16789,16482,16152,15812,15475,15153,14853,14577,14327,14101,13898,13710,13522,13320,13094,12840,12602,12224,11932,11657,11407,11189,11003,10845,10707,10582,10464,10352,10244,10141,10042,9942,9839,9732,9620,9504,9382,9250,9106,8949,8787,8629,8482,8350,8233,8131,8039,7953,7869,7786,7704,7623,7548,7478,7416,7359,7306,7258,7216,7181,7150,7123,7096,7072,7049,7034,7030,7028,7030,7428,7447,7486,7515
0,0,0,0,0,0,0,0,0,0,0,0,0,0,0,0,6892,6898,6965,7014,7085,7163,7367,7527,7687,8094,8335,8496,8668,8941,9273,9683,10351,11019,13124,16409,17915,19262,20405,21447,22349,23029,23525,23833,23970,24000,23938,23796,23583,23267,22900,22449,21884,21181,20318,19300,18207,17153,16233,15503,14966,14585,14322,14155,14067,14052,14104,14213,14372,14582,14839,15145,15491,15858,16223,16576,16911,17229,17540,17878,18283,18783,19391,20128,21019,22153,23658,25813,29486,33805,40565,46808,52553,56589,59687,61776,0,0,0,0,0,0,0,0,0,0,0,0,0,0,0,0,0,0,0,0,0,0,0,0,0,0,0,0,0,0,0,0,0,0,0,0,0,0,0,0,0,0,0,0,0,0,0,0,0,0,0,0,0,0,0,0,0,0,0,0,0,0,0,0,0,0,0,0,0,0,0,0,0,0,3874,3856,3862,3852,3845,3840,0,0,0,0,0,0,2161,2170,2171,2173,2176,2180,2185,2192,2202,2213,2227,2243,2260,2278,2297,2317,2341,2412,2443,2433,2504,2530,2554,2560,2582,2611,2642,2679,2708,2744,2782,2829,2868,2907,2945,2984,3025,3067,3109,3147,3178,3200,3218,13616,13575,13506,13398,13260,13145,13020,12908,12818,12776,12772,12812,12898,13030,13210,13431,13687,13973,14288,14629,15003,15408,15840,16291,16757,17227,17695,18164,18640,19125,19625,20152,20721,21370,22144,23113,24372,26021,29301,33281,36669,40352,44335,48603,52824,56310,58547,59763,0,0,0,0,0,0,0,0,0,0,0,0,0,0,0,0,59152,58821,59327,59681,59853,60050,60417,60957,61582,61858,60079,60648,0,0,0,6520,6484,6483,6455,6403,6402,6408,6421,6439,6472,6490,6258,6271,6349,0,0,0,0,0,0,0,0,0,0,2150,2146,2139,2129,2118,2104,2090,2076,2063,2053,2046,2040,2035,2032,2029,2028,2026,2022,0,0,0,0,0,0,0,0,0,0,0,0,0,0,0,0,0,0,0,0,0,0,0,0,0,0,0,0,0,0,0,0,0,0,0,0,0,0,0,0,0,0,0,0,0,0,0,0,0,0,0,0,0,0,0,0,0,0,0,0,0,0,0,0,0,0,0,0,0,0,0,0,0,0,0,0,0,0,0,0,0,0,0,0,0,0,0,0,0,0,0,0,0,0,0,0,0,0,0,0,0,0,0,0,0,0,0,0,0,0,0,0,0,0,0,0,0,0,0,0,0,0,0,0,0,0,0,0,0,0,0,0,0,0,0,0,0,0,0,0,0,0,0,0,0,0,0,0,0,0,0,0,0,0,0,0,0,0,0,0,0,0,0,0,64685,64086,63904,63112,62178,61178,59081,58547,58334,62695,63092,62873,62488,61915,61163,60387,59641,58960,58343,57735,56983,55980,54581,52735,50513,48040,45473,43000,40778,38883,37337,36105,35128,34329,33628,32963,32309,31656,30985,30239,29341,28212,26867,25427,24029,22772,21711,20835,20124,19530,19025,18589,18209,17878,17585,17314,17073,16792,16471,16131,15790,15462,15155,14870,14608,14367,14145,13941,13747,13552,13344,13115,12866,12676,12234,11955,11691,11448,11234,11051,10894,10758,10633,10514,10399,10288,10180,10074,9966,9854,9737,9618,9495,9370,9240,9101,8953,8801,8654,8516,8393,8284,8188,8100,8018,7937,7856,7774,7695,7620,7551,7489,7432,7379,7333,7293,7262,7234,7208,7179,7149,7123,7093,7083,7479,7500,7525,7527,7577,7600
0,0,0,0,0,0,0,0,0,0,0,0,0,0,0,0,6810,6839,6903,6953,7021,7109,7231,7474,7765,7966,8263,8406,8551,8742,8941,9239,9677,10188,10035,16525,18136,19465,20477,21418,22250,22844,23296,23586,23704,23723,23641,23462,23195,22786,22338,21804,21156,20381,19472,18454,17410,16437,15611,14971,14507,14183,13966,13838,13788,13811,13901,14049,14244,14482,14759,15073,15416,15775,16135,16486,16820,17136,17441,17766,18155,18636,19226,19945,20827,21959,23485,25682,29154,33573,39824,46101,51892,56254,59379,61588,63129,0,0,0,0,0,0,0,0,0,0,0,0,0,0,0,0,0,0,0,0,0,0,0,0,0,0,0,0,0,0,0,0,0,0,0,0,0,0,0,0,0,0,0,0,0,0,0,0,0,0,0,0,0,0,0,0,0,0,0,0,0,0,0,0,0,0,0,0,0,0,0,0,0,3856,3883,3870,3864,3859,3853,0,0,0,0,0,0,2166,2168,2170,2172,2175,2179,2184,2192,2201,2213,2227,2243,2261,2280,2300,2321,2345,2372,2441,2430,2498,2523,2546,2554,2579,2620,2650,2677,2710,2743,2781,2831,2871,2911,2951,2992,3034,3076,3117,3153,3183,3202,3216,13466,13416,13341,13237,13112,12994,12872,12760,12668,12612,12588,12600,12649,12733,12854,13007,13190,13403,13648,13927,14249,14617,15029,15479,15959,16456,16959,17469,17988,18517,19061,19629,20233,20905,21682,22618,23779,25211,28532,33882,37068,40498,44221,48274,52369,55794,57953,59061,0,0,0,0,0,0,0,0,0,0,0,0,0,0,0,0,58556,59065,59884,60259,60567,60867,61269,61752,62203,61895,60514,0,0,0,6580,6561,6549,6479,6430,6404,6390,6395,6416,6434,6462,6480,6264,6263,6355,0,0,0,0,0,0,0,0,0,0,2154,2150,2144,2134,2122,2107,2092,2077,2064,2054,2045,2039,2035,2031,2029,2028,2022,0,0,0,0,0,0,0,0,0,0,0,0,0,0,0,0,0,0,0,0,0,0,0,0,0,0,0,0,0,0,0,0,0,0,0,0,0,0,0,0,0,0,0,0,0,0,0,0,0,0,0,0,0,0,0,0,0,0,0,0,0,0,0,0,0,0,0,0,0,0,0,0,0,0,0,0,0,0,0,0,0,0,0,0,0,0,0,0,0,0,0,0,0,0,0,0,0,0,0,0,0,0,0,0,0,0,0,0,0,0,0,0,0,0,0,0,0,0,0,0,0,0,0,0,0,0,0,0,0,0,0,0,0,0,0,0,0,0,0,0,0,0,0,0,0,0,0,0,0,0,0,0,0,0,0,0,0,0,0,0,0,0,0,0,0,64357,63527,63346,63584,62838,62120,60489,60219,60220,60296,62308,62216,62390,61792,61036,60223,59427,58677,57981,57250,56352,55191,53642,51708,49488,47100,44678,42369,40304,38553,37133,36005,35104,34356,33680,33020,32352,31681,30993,30235,29335,28216,26890,25470,24083,22827,21758,20874,20156,19568,19079,18665,18308,17995,17709,17432,17158,16845,16497,16135,15778,15443,15135,14851,14588,14342,14112,13896,13693,13491,13284,13065,12837,13067,12199,11956,11717,11492,11288,11109,10953,10814,10684,10559,10438,10320,10205,10092,9978,9859,9735,9609,9480,9352,9221,9085,8943,8801,8662,8534,8421,8321,8234,8154,8078,8002,7924,7844,7765,7689,7619,7555,7498,7446,7401,7365,7338,7314,7287,7255,7218,7184,7551,7583,7589,7601,7617,7586,7659,7679
0,0,0,0,0,0,0,0,0,0,0,0,0,0,0,6890,6798,6815,6859,6904,6967,7100,7223,7250,7856,7771,8065,8201,8330,8477,8671,8897,9204,9691,9466,9662,18465,19797,20556,21304,22013,22478,22884,23180,23310,23357,23288,23089,22775,22245,21704,21081,20344,19497,18553,17554,16581,15710,14995,14456,14074,13815,13650,13565,13552,13610,13733,13910,14129,14382,14666,14975,15307,15655,16012,16367,16711,17038,17349,17669,18042,18500,19062,19753,20609,21713,23212,25365,28632,32960,38798,45012,50865,55533,58954,61246,62830,63825,0,0,0,0,0,0,0,0,0,0,0,0,0,0,0,0,0,0,0,0,0,0,0,0,0,0,0,0,0,0,0,0,0,0,0,0,0,0,0,0,0,0,0,0,0,0,0,0,0,0,0,0,0,0,0,0,0,0,0,0,0,0,0,0,0,0,0,0,0,0,0,0,3928,3887,3879,3874,3870,3863,0,0,0,0,0,0,2164,2167,2169,2171,2174,2178,2184,2191,2201,2213,2228,2246,2265,2285,2307,2329,2352,2378,2404,2433,2459,2484,2508,2548,2573,2612,2639,2672,2706,2743,2785,2827,2868,2911,2953,2996,3039,3082,3122,3157,3185,3203,3215,13345,13288,13212,13113,12997,12883,12765,12655,12563,12498,12461,12453,12474,12524,12602,12705,12833,12987,13171,13391,13656,13976,14349,14775,15247,15752,16280,16825,17387,17963,18555,19168,19812,20516,21315,22257,23395,24745,28435,34816,38055,41458,45080,48965,52852,56063,58008,0,0,0,0,0,0,0,0,0,0,0,0,0,0,0,0,0,65410,59612,60924,61308,61664,61991,62352,62707,62886,62492,0,0,0,0,6574,6537,6467,6440,6420,6421,6387,6378,6412,6431,6457,6475,6261,6260,0,0,0,0,0,0,0,0,0,0,0,2158,2154,2147,2137,2125,2110,2094,2078,2064,2053,2044,2038,2033,2030,2028,0,0,0,0,0,0,0,0,0,0,0,0,0,0,0,0,0,0,0,0,0,0,0,0,0,0,0,0,0,0,0,0,0,0,0,0,0,0,0,0,0,0,0,0,0,0,0,0,0,0,0,0,0,0,0,0,0,0,0,0,0,0,0,0,0,0,0,0,0,0,0,0,0,0,0,0,0,0,0,0,0,0,0,0,0,0,0,0,0,0,0,0,0,0,0,0,0,0,0,0,0,0,0,0,0,0,0,0,0,0,0,0,0,0,0,0,0,0,0,0,0,0,0,0,0,0,0,0,0,0,0,0,0,0,0,0,0,0,0,0,0,0,0,0,0,0,0,0,0,0,0,0,0,0,0,0,0,0,0,0,0,0,0,0,0,0,0,64115,63018,61825,62315,61260,60225,59751,59612,59791,60029,62233,62807,62468,61862,61076,60218,59384,58560,57745,56907,55896,54574,52868,50831,48590,46255,43940,41765,39839,38223,36926,35904,35086,34395,33748,33090,32407,31712,30998,30218,29307,28189,26876,25475,24103,22855,21789,20907,20193,19619,19154,18769,18441,18148,17869,17582,17278,16930,16546,16150,15766,15413,15092,14800,14527,14268,14022,13791,13574,13365,13157,12943,12722,12345,12193,11974,11757,11549,11357,11183,11026,10881,10741,10605,10473,10345,10222,10103,9982,9859,9730,9598,9463,9331,9198,9064,8927,8792,8661,8541,8436,8346,8268,8196,8127,8056,7981,7902,7821,7743,7670,7604,7545,7494,7451,7416,7393,7367,7336,7297,7667,7634,7603,7660,7657,7658,7664,7579,6982,6974
0,0,0,0,0,0,0,0,0,0,0,0,0,0,6866,6811,6832,6836,6862,6905,6920,7103,7235,7380,7678,7785,7926,8051,8168,8293,8445,8619,8838,9053,9340,9235,18367,20112,20485,20951,21506,21801,22181,22534,22720,22850,22838,22638,22279,21584,20942,20233,19422,18526,17579,16631,15753,15001,14407,13975,13682,13493,13385,13345,13369,13458,13606,13802,14034,14292,14572,14872,15192,15532,15889,16256,16621,16971,17298,17621,17983,18417,18950,19608,20433,21501,22952,25020,28072,32193,37631,43668,49530,54458,58225,60858,62646,63757,64414,64816,0,0,0,0,0,0,0,0,0,0,0,0,0,0,0,0,0,0,0,0,0,0,0,0,0,0,0,0,0,0,0,0,0,0,0,0,0,0,0,0,0,0,0,0,0,0,0,0,0,0,0,0,0,0,0,0,0,0,0,0,0,0,0,0,0,0,0,0,0,0,3863,3911,3884,3881,3878,3849,0,0,0,0,0,2161,2163,2165,2167,2170,2173,2177,2183,2191,2201,2215,2231,2250,2271,2293,2316,2339,2363,2388,2413,2439,2464,2488,2512,2543,2570,2604,2632,2663,2696,2735,2777,2818,2861,2906,2950,2995,3040,3084,3124,3159,3185,3201,3214,13261,13197,13119,13022,12912,12801,12689,12582,12490,12421,12375,12354,12357,12384,12432,12500,12586,12694,12829,12996,13208,13475,13801,14188,14632,15127,15661,16228,16825,17444,18081,18740,19431,20182,21035,22036,23232,24629,28133,36030,39580,43165,46825,50583,54209,57128,58842,0,0,0,0,0,0,0,0,0,0,0,0,0,0,0,0,0,0,64330,62235,62511,62810,63077,63333,63516,63328,0,0,0,0,6601,6570,6531,6502,6436,6416,6419,6383,6350,0,0,0,6476,6355,0,0,0,0,0,0,0,0,0,0,0,0,2159,2157,2150,2140,2126,2111,2094,2078,2063,2052,2043,2036,2032,2029,2027,2022,0,0,0,0,0,0,0,0,0,0,0,0,0,0,0,0,0,0,0,0,0,0,0,0,0,0,0,0,0,0,0,0,0,0,0,0,0,0,0,0,0,0,0,0,0,0,0,0,0,0,0,0,0,0,0,0,0,0,0,0,0,0,0,0,0,0,0,0,0,0,0,0,0,0,0,0,0,0,0,0,0,0,0,0,0,0,0,0,0,0,0,0,0,0,0,0,0,0,0,0,0,0,0,0,0,0,0,0,0,0,0,0,0,0,0,0,0,0,0,0,0,0,0,0,0,0,0,0,0,0,0,0,0,0,0,0,0,0,0,0,0,0,0,0,0,0,0,0,0,0,0,0,0,0,0,0,0,0,0,0,0,0,0,0,0,0,0,62696,63024,62058,61060,59789,59435,59436,59818,60207,61611,63082,62755,62151,61311,60397,59491,58613,57710,56762,55615,54136,52265,50105,47812,45497,43262,41196,39386,37890,36704,35782,35045,34411,33795,33143,32446,31730,30990,30187,29260,28136,26832,25448,24096,22866,21815,20946,20247,19693,19255,18900,18598,18321,18046,17748,17415,17029,16604,16169,15754,15376,15038,14733,14448,14174,13912,13667,13440,13228,13026,12826,12624,12344,12185,11992,11799,11612,11433,11266,11110,10958,10809,10660,10514,10376,10244,10117,9990,9861,9727,9590,9448,9311,9177,9044,8911,8782,8657,8544,8445,8362,8291,8226,8162,8095,8020,7940,7856,7774,7697,7628,7567,7514,7470,7434,7410,7379,7340,7290,7651,7599,7551,7661,7652,7646,6949,7469,6888,6881
0,0,0,0,0,0,0,0,0,0,0,0,0,0,6774,6788,6790,6810,6834,6866,6908,7047,7236,6947,7605,7668,7793,7910,8021,8137,8269,8415,8584,8750,8352,8513,0,20307,20152,20257,20655,20749,21135,21608,21900,22174,22263,22075,21668,20737,19990,19219,18369,17470,16566,15708,14951,14332,13865,13543,13340,13225,13178,13187,13251,13369,13537,13747,13985,14243,14517,14807,15117,15452,15815,16198,16588,16966,17313,17642,17995,18406,18909,19537,20332,21366,22763,24728,27558,31393,36396,42123,47890,52999,57107,60124,62186,63492,64286,64769,65087,65233,65351,65437,0,0,0,0,0,0,0,0,0,0,0,0,0,0,0,0,0,0,0,0,0,0,0,0,0,0,0,0,0,0,0,0,0,0,0,0,0,0,0,0,0,0,0,0,0,0,0,0,0,0,0,0,0,0,0,0,0,0,0,0,0,0,0,0,0,0,0,3888,3872,3870,3897,0,0,0,0,0,0,2159,2162,2165,2167,2169,2173,2177,2184,2192,2203,2218,2235,2256,2279,2303,2327,2352,2376,2400,2424,2448,2471,2493,2515,2542,2568,2598,2626,2657,2689,2726,2766,2807,2851,2896,2943,2990,3037,3083,3124,3159,3184,3198,3216,13214,13138,13055,12958,12852,12744,12635,12532,12442,12371,12320,12292,12284,12296,12324,12366,12423,12497,12592,12716,12881,13097,13373,13712,14116,14581,15102,15672,16285,16934,17609,18312,19056,19876,20822,21952,23330,24983,28834,36963,41170,45180,49019,52691,56025,58601,60078,0,0,0,0,0,0,0,0,0,0,0,0,0,0,0,0,0,0,64106,63364,63520,63744,63926,64066,64028,64739,0,0,0,0,6607,6548,6526,6460,6433,6413,6418,6373,6347,0,0,0,0,0,0,0,0,0,0,0,0,0,0,0,0,0,0,2158,2151,2141,2126,2110,2093,2077,2062,2050,2041,2034,2030,2027,2025,2022,0,0,0,0,0,0,0,0,0,0,0,0,0,0,0,0,0,0,0,0,0,0,0,0,0,0,0,0,0,0,0,0,0,0,0,0,0,0,0,0,0,0,0,0,0,0,0,0,0,0,0,0,0,0,0,0,0,0,0,0,0,0,0,0,0,0,0,0,0,0,0,0,0,0,0,0,0,0,0,0,0,0,0,0,0,0,0,0,0,0,0,0,0,0,0,0,0,0,0,0,0,0,0,0,0,0,0,0,0,0,0,0,0,0,0,0,0,0,0,0,0,0,0,0,0,0,0,0,0,0,0,0,0,0,0,0,0,0,0,0,0,0,0,0,0,0,0,0,0,0,0,0,0,0,0,0,0,0,0,0,0,0,0,0,0,0,0,0,65002,64741,64416,59639,59442,59561,60149,60644,62087,62172,63141,62550,61647,60671,59714,58759,57794,56711,55442,53816,51782,49484,47117,44802,42625,40649,38938,37542,36452,35616,34951,34372,33789,33149,32448,31718,30961,30141,29201,28075,26781,25420,24095,22895,21872,21027,20350,19818,19401,19065,18777,18507,18227,17913,17550,17128,16663,16190,15743,15341,14987,14668,14370,14083,13808,13551,13317,13105,12909,12721,12538,12319,12166,11997,11828,11662,11501,11345,11192,11039,10881,10722,10566,10417,10275,10140,10007,9871,9732,9589,9438,9297,9160,9028,8898,8775,8655,8545,8451,8372,8305,8244,8184,8117,8043,7960,7873,7786,7705,7632,7567,7509,7460,7417,7387,7344,7293,7230,7533,7460,7391,6677,6617,6570,6416,7258,6378,6350
0,0,0,0,0,0,0,0,0,0,0,0,0,0,6789,6786,6785,6796,6814,6839,6960,7013,6854,6896,7737,7185,7290,7414,7543,7649,7760,7878,8008,8152,8584,8546,8638,0,19459,19179,19474,19344,19778,20442,20874,21353,21586,21412,20946,19662,18816,18023,17188,16345,15539,14809,14196,13718,13378,13163,13050,13010,13026,13087,13193,13343,13533,13756,14000,14259,14530,14814,15119,15455,15825,16225,16638,17039,17402,17732,18072,18460,18934,19532,20301,21303,22645,24497,27095,30590,35108,40401,45947,51145,55577,59025,61444,63022,64005,64641,64982,65205,65305,65383,65458,0,0,0,0,0,0,0,0,0,0,0,0,0,0,0,0,0,0,0,0,0,0,0,0,0,0,0,0,0,0,0,0,0,0,0,0,0,0,0,0,0,0,0,0,0,0,0,0,0,0,0,0,0,0,0,0,0,0,0,0,0,0,0,0,0,0,0,0,0,0,0,0,0,0,0,0,2159,2162,2165,2168,2170,2174,2179,2186,2195,2207,2222,2241,2263,2287,2312,2338,2363,2388,2412,2435,2457,2478,2498,2518,2542,2566,2593,2621,2651,2682,2717,2754,2794,2837,2883,2931,2981,3030,3078,3122,3158,3183,3193,13400,13196,13099,13012,12914,12810,12705,12599,12499,12412,12342,12290,12257,12243,12244,12258,12284,12319,12367,12433,12522,12648,12820,13046,13334,13689,14111,14601,15152,15760,16418,17116,17856,18654,19555,20619,21922,23560,25615,30963,37528,42604,47157,51246,54851,57885,60111,61362,0,0,0,0,0,0,0,0,0,0,0,0,0,0,0,0,0,0,64805,64065,64165,64362,64484,64520,64073,0,0,0,0,0,0,6551,6490,6444,6417,6362,6343,0,0,0,0,0,0,0,0,0,0,0,0,0,0,0,0,0,0,0,0,2161,2151,2140,2125,2109,2092,2075,2061,2048,2039,2032,2028,2025,2024,2021,0,0,0,0,0,0,0,0,0,0,0,0,0,0,0,0,0,0,0,0,0,0,0,0,0,0,0,0,0,0,0,0,0,0,0,0,0,0,0,0,0,0,0,0,0,0,0,0,0,0,0,0,0,0,0,0,0,0,0,0,0,0,0,0,0,0,0,0,0,0,0,0,0,0,0,0,0,0,0,0,0,0,0,0,0,0,0,0,0,0,0,0,0,0,0,0,0,0,0,0,0,0,0,0,0,0,0,0,0,0,0,0,0,0,0,0,0,0,0,0,0,0,0,0,0,0,0,0,0,0,0,0,0,0,0,0,0,0,0,0,0,0,0,0,0,0,0,0,0,0,0,0,0,0,0,0,0,0,0,0,0,0,0,0,0,0,0,0,0,64889,64629,64375,64182,64084,60586,61081,62519,62774,63510,62926,61982,60944,59911,58881,57829,56671,55268,53511,51334,48909,46472,44153,42025,40125,38494,37178,36161,35390,34783,34251,33704,33084,32393,31664,30904,30079,29137,28016,26740,25409,24123,22967,21985,21174,20521,20006,19600,19269,18978,18700,18405,18069,17675,17217,16716,16210,15736,15312,14942,14611,14301,14002,13716,13450,13209,12995,12802,12622,12451,12268,12125,11976,11828,11684,11541,11400,11257,11106,10948,10784,10621,10463,10313,10169,10028,9886,9741,9592,9442,9302,9167,9015,8888,8772,8654,8547,8455,8379,8314,8254,8194,8127,8052,7967,7877,7786,7701,7623,7552,7489,7432,7379,7326,7269,7202,7125,7038,6953,6881,6752,6687,6642,6548,7028,6525,6836
0,0,0,0,0,0,0,0,0,0,0,0,0,0,6784,6784,6782,6788,6802,6898,7068,7129,6839,7583,7707,7652,7222,7370,7751,7867,7986,8111,8271,8414,8550,8614,8794,10472,17637,17935,18166,17742,18246,19161,19743,20485,20910,20745,20211,18400,17471,16711,15948,15214,14547,13972,13511,13173,12954,12840,12809,12839,12916,13032,13184,13370,13587,13828,14085,14350,14622,14907,15213,15551,15929,16341,16767,17178,17545,17868,18189,18550,18994,19565,20307,21277,22561,24292,26655,29783,33787,38565,43778,48955,53663,57570,60411,62332,63568,64404,64830,65117,65230,65343,65406,0,0,0,0,0,0,0,0,0,0,0,0,0,0,0,0,0,0,0,0,0,0,0,0,0,0,0,0,0,0,0,0,0,0,0,0,0,0,0,0,0,0,0,0,0,0,0,0,0,0,0,0,0,0,0,0,0,0,0,0,0,0,0,0,0,0,0,0,0,0,0,0,0,0,0,0,2159,2163,2168,2170,2173,2177,2182,2189,2199,2212,2228,2247,2269,2294,2320,2347,2373,2398,2422,2444,2464,2483,2502,2520,2541,2564,2590,2617,2645,2675,2707,2742,2780,2822,2868,2917,2969,3021,3073,3120,3158,3185,3186,13271,13186,13061,12971,12876,12776,12675,12575,12479,12396,12327,12275,12240,12221,12215,12220,12233,12254,12284,12328,12393,12488,12622,12805,13044,13347,13719,14163,14678,15259,15905,16607,17370,18215,19191,20368,21830,23699,26102,31192,37869,43849,48880,53186,56718,59478,61415,62522,64063,0,0,0,0,0,0,0,0,0,0,0,0,0,0,0,0,0,64921,64436,64478,64718,64784,64689,0,0,0,0,0,0,0,0,0,0,0,0,0,0,0,0,0,0,0,0,0,0,0,0,0,0,0,0,0,0,0,0,0,0,0,2132,2122,2108,2091,2074,2059,2047,2038,2031,2027,2024,2023,0,0,0,0,0,0,0,0,0,0,0,0,0,0,0,0,0,0,0,0,0,0,0,0,0,0,0,0,0,0,0,0,0,0,0,0,0,0,0,0,0,0,0,0,0,0,0,0,0,0,0,0,0,0,0,0,0,0,0,0,0,0,0,0,0,0,0,0,0,0,0,0,0,0,0,0,0,0,0,0,0,0,0,0,0,0,0,0,0,0,0,0,0,0,0,0,0,0,0,0,0,0,0,0,0,0,0,0,0,0,0,0,0,0,0,0,0,0,0,0,0,0,0,0,0,0,0,0,0,0,0,0,0,0,0,0,0,0,0,0,0,0,0,0,0,0,0,0,0,0,0,0,0,0,0,0,0,0,0,0,0,0,0,0,0,0,0,0,0,0,64969,64761,64507,64267,64097,64142,64075,63902,63228,62768,61873,62208,61097,60006,58898,57759,56510,55011,53156,50887,48388,45913,43598,41505,39656,38079,36812,35839,35108,34539,34044,33532,32942,32274,31564,30818,30004,29071,27962,26708,25410,24169,23064,22133,21364,20740,20241,19838,19499,19194,18897,18579,18217,17790,17299,16765,16231,15734,15292,14907,14562,14239,13929,13632,13357,13108,12889,12695,12517,12352,12188,12052,11918,11789,11664,11542,11418,11289,11148,10994,10831,10665,10501,10344,10191,10041,9891,9741,9579,9432,9290,9154,9021,8894,8767,8652,8548,8457,8382,8318,8258,8197,8129,8053,7966,7875,7783,7695,7613,7537,7467,7402,7339,7275,7207,7130,7047,6955,6870,6790,6692,6522,6477,6789,6890,6490,6795
0,0,0,0,0,0,0,0,0,0,0,0,0,7054,6769,6862,6860,6866,7002,7030,7073,7127,6839,7301,7413,7573,7701,7552,7707,7829,7953,8084,8242,8394,8554,8693,8935,9572,10797,13025,14610,16158,16729,17949,18650,19719,20400,20235,19644,17030,16060,15405,14767,14176,13663,13244,12927,12716,12601,12573,12613,12705,12838,13006,13204,13430,13682,13951,14228,14507,14788,15077,15384,15725,16106,16520,16945,17351,17707,18014,18312,18645,19060,19602,20316,21249,22467,24071,26196,28957,32453,36695,41500,46550,51456,55814,59105,61417,62966,64101,64275,64811,65135,65284,65376,0,0,0,0,0,0,0,0,0,0,0,0,0,0,0,0,0,0,0,0,0,0,0,0,0,0,0,0,0,0,0,0,0,0,0,0,0,0,0,0,0,0,0,0,0,0,0,0,0,0,0,0,0,0,0,0,0,0,0,0,0,0,0,0,0,5813,5777,5765,0,0,0,0,0,0,0,0,2153,2165,2172,2174,2177,2181,2187,2194,2204,2217,2234,2253,2275,2300,2327,2354,2381,2406,2430,2451,2470,2488,2505,2522,2541,2562,2586,2612,2639,2667,2697,2730,2766,2807,2853,2903,2956,3011,3067,3119,3162,3192,0,13265,13170,13001,12913,12827,12738,12646,12553,12465,12387,12321,12270,12234,12212,12202,12201,12206,12217,12236,12266,12312,12384,12488,12634,12830,13084,13405,13799,14267,14808,15426,16116,16886,17763,18796,20061,21645,23681,26320,30835,37839,44799,50162,54617,58080,60626,62347,63356,64573,64981,65236,0,0,0,0,0,0,0,0,0,0,0,0,0,0,0,0,64673,64728,64804,64889,64650,0,0,0,0,0,0,0,0,0,0,0,0,0,0,0,0,0,0,0,0,0,0,0,0,0,0,0,0,0,0,0,0,0,0,0,0,0,0,0,0,0,0,0,0,0,2019,0,0,0,0,0,0,0,0,0,0,0,0,0,0,0,0,0,0,0,0,0,0,0,0,0,0,0,0,0,0,0,0,0,0,0,0,0,0,0,0,0,0,663,663,662,661,660,658,657,656,655,655,0,0,0,0,0,0,0,0,0,0,0,0,0,0,0,0,0,0,0,0,0,0,0,0,0,0,0,0,0,0,0,0,0,0,0,0,0,0,0,0,0,0,0,0,0,0,0,0,0,0,0,0,0,0,0,0,0,0,0,0,0,0,0,0,0,0,0,0,0,0,0,0,0,0,0,0,0,0,0,0,0,0,0,0,0,0,0,0,0,0,0,0,0,0,0,0,0,0,0,0,0,0,0,0,0,0,0,0,0,0,0,0,0,0,0,0,0,65355,0,64940,64747,64470,64165,63906,63992,63951,63854,63052,62699,61876,62009,61101,59952,58767,57538,56199,54638,52748,50477,47993,45533,43228,41146,39309,37745,36488,35523,34801,34249,33778,33299,32745,32113,31435,30718,29924,29006,27911,26677,25409,24209,23154,22273,21550,20960,20479,20080,19732,19410,19092,18751,18362,17906,17383,16821,16262,15744,15285,14883,14523,14186,13863,13556,13271,13014,12789,12590,12410,12245,12090,11956,11832,11717,11610,11506,11400,11286,11157,11012,10854,10688,10520,10355,10193,10033,9875,9719,9565,9418,9279,9145,9014,8887,8758,8646,8545,8457,8383,8319,8258,8196,8128,8052,7964,7874,7783,7695,7611,7532,7456,7384,7313,7241,7165,7083,6996,6781,6699,6625,6550,6501,6563,6764,6824,6482,6781
0,0,0,0,0,0,0,0,0,0,0,0,7072,6926,6727,6998,6997,7007,7020,7043,7082,7130,7062,7281,7382,7187,7636,7644,7741,7795,7922,8053,8208,8362,8526,8684,8907,9338,9518,9907,10230,9395,17932,15466,16018,18517,0,19236,18554,15115,14653,14190,13721,13291,12931,12653,12460,12353,12323,12363,12460,12602,12781,12994,13237,13507,13797,14100,14405,14705,14998,15294,15603,15941,16317,16721,17132,17521,17858,18145,18420,18727,19113,19624,20303,21188,22328,23794,25685,28097,31121,34860,39243,44093,49102,53872,57588,60309,61887,63386,63897,64593,65008,65211,0,0,0,0,0,0,0,0,0,0,0,0,0,0,0,0,0,0,0,0,0,0,0,0,0,0,0,0,0,0,0,0,0,0,0,0,0,0,0,0,0,0,0,0,0,0,0,0,0,0,0,0,0,0,0,0,0,0,0,0,0,0,0,0,0,5795,5777,5754,5737,5714,0,0,0,0,0,0,0,0,2168,2178,2180,2183,2187,2193,2201,2211,2224,2240,2260,2282,2306,2332,2359,2386,2412,2435,2456,2474,2491,2506,2522,2540,2559,2582,2606,2632,2659,2687,2718,2753,2793,2839,2889,2944,3002,3064,3121,3171,3208,3246,13260,13142,12897,12819,12750,12679,12604,12526,12449,12379,12320,12272,12237,12214,12202,12196,12197,12202,12214,12234,12268,12323,12403,12519,12678,12889,13164,13511,13933,14431,15013,15681,16445,17332,18395,19707,21349,23444,26127,29996,37616,45678,51112,55591,58973,61356,62924,63849,64703,65024,65283,0,0,0,0,0,0,0,0,0,0,0,0,0,0,0,0,0,0,0,0,0,0,0,0,0,0,0,0,0,0,0,0,0,0,0,0,0,0,0,0,0,0,0,0,0,0,0,0,0,0,0,0,0,0,653,653,653,652,652,652,652,652,652,652,0,0,0,0,0,0,0,0,650,649,649,649,0,0,648,648,648,648,648,0,0,0,0,0,0,0,0,0,0,0,0,0,0,0,0,653,653,0,0,0,0,0,0,0,663,663,662,661,660,659,658,656,655,654,654,653,0,0,0,0,0,0,0,0,0,0,0,0,0,0,0,0,0,0,0,0,0,0,0,0,0,0,0,0,0,0,0,0,0,0,0,0,0,0,0,0,0,0,0,0,0,0,0,0,0,0,0,0,0,0,0,0,0,0,0,0,0,0,0,0,0,0,0,0,0,0,0,0,0,0,0,0,0,0,0,0,0,0,0,0,0,0,0,0,0,0,0,0,0,0,0,0,0,0,0,0,0,0,0,0,0,0,0,0,0,0,0,0,0,0,0,0,64541,0,64793,64592,64240,63953,63607,63583,63592,63604,63457,62895,62159,62137,60422,59774,58502,57186,55761,54174,52331,50167,47795,45399,43107,41004,39134,37539,36250,35257,34516,33957,33496,33041,32522,31932,31296,30615,29847,28946,27863,26640,25391,24219,23202,22365,21687,21134,20677,20288,19939,19608,19276,18917,18506,18023,17473,16884,16301,15764,15287,14869,14493,14142,13809,13494,13201,12937,12705,12500,12316,12149,11995,11861,11741,11634,11538,11447,11355,11254,11136,11000,10848,10683,10512,10339,10168,9999,9835,9676,9523,9380,9244,9114,8988,8865,8744,8636,8539,8454,8382,8318,8257,8195,8128,8053,7965,7878,7791,7704,7621,7540,7461,7383,7307,7230,7150,7067,6855,6766,6689,6622,6561,6519,6462,6771,6812,6714,6794
0,0,0,0,0,0,0,0,0,0,0,0,7094,6901,6714,6656,7005,7022,7035,7059,7095,7140,7198,6953,7035,7154,7588,7703,7710,7738,7870,8019,8172,8326,8486,8644,8838,9137,9309,9587,9838,10060,10171,10316,10537,0,0,0,13140,13567,13510,13217,12902,12613,12380,12212,12115,12086,12119,12208,12346,12524,12740,12991,13275,13585,13916,14255,14589,14910,15216,15515,15821,16151,16513,16899,17290,17658,17975,18245,18502,18789,19149,19628,20265,21091,22141,23466,25134,27236,29857,33188,37204,41831,46855,51978,56040,59174,61072,62592,63430,63466,0,0,0,0,0,0,0,0,0,0,0,0,0,0,0,0,0,0,0,0,0,0,0,0,0,0,0,0,0,0,0,0,0,0,0,0,0,0,0,0,0,0,0,0,0,0,0,0,0,0,0,0,0,0,0,0,0,0,0,0,0,0,0,0,0,0,5847,5786,5754,5703,5700,5680,0,0,0,0,0,0,0,0,0,2186,2188,2190,2194,2200,2207,2218,2231,2247,2266,2288,2311,2337,2364,2390,2416,2439,2459,2477,2493,2507,2521,2537,2556,2577,2600,2625,2650,2678,2707,2741,2780,2825,2876,2932,2992,3060,3123,3180,3224,3272,0,13103,12722,12663,12624,12583,12535,12480,12422,12366,12317,12277,12247,12226,12214,12207,12205,12207,12214,12227,12251,12291,12354,12445,12574,12751,12988,13294,13676,14136,14685,15326,16073,16952,18018,19340,20998,23109,25813,29438,36386,45134,50849,55591,59128,61554,63123,64047,64733,65020,0,0,0,0,0,0,0,0,0,0,0,0,0,0,0,0,0,0,0,0,0,0,0,0,0,0,0,0,0,0,0,0,0,0,0,0,0,0,0,0,0,0,0,0,0,0,718,718,719,0,0,0,0,0,653,653,653,653,652,652,652,652,651,651,651,651,651,0,0,0,0,0,649,649,649,649,648,648,648,648,648,648,648,648,649,0,0,0,0,0,0,0,0,0,0,0,655,654,654,654,654,654,655,656,657,0,0,663,663,663,662,661,660,659,658,656,655,654,653,653,652,0,0,0,0,0,0,0,0,0,0,0,0,0,0,0,0,0,0,0,0,0,0,0,0,0,0,0,0,0,0,0,0,0,0,0,0,0,0,0,0,0,0,0,0,0,0,0,0,0,0,0,0,0,0,0,0,0,0,0,0,0,0,0,0,0,0,0,0,0,0,0,0,0,0,0,0,0,0,0,0,0,0,0,0,0,0,0,0,0,0,0,0,0,0,0,0,0,0,0,0,0,0,0,0,0,0,0,0,0,0,0,0,0,0,0,0,64009,0,64634,64375,63901,63507,63016,62984,63044,63192,63230,63006,62398,61325,60820,59558,58184,56758,55251,53655,51905,49912,47717,45433,43169,41038,39114,37460,36113,35069,34289,33707,33242,32801,32312,31760,31166,30521,29779,28890,27812,26588,25341,24181,23186,22381,21739,21223,20796,20428,20090,19762,19426,19058,18630,18125,17550,16938,16335,15781,15290,14859,14471,14113,13774,13457,13161,12893,12654,12443,12254,12082,11926,11788,11666,11560,11466,11380,11293,11199,11088,10958,10811,10649,10474,10296,10119,9944,9777,9619,9470,9333,9205,9083,8963,8846,8732,8627,8533,8450,8379,8316,8256,8194,8128,8056,7968,7885,7803,7720,7639,7559,7479,7399,7321,7242,7163,7081,6982,6786,6716,6764,6716,6786,6569,6555,6836,6828,6827
0,0,0,0,0,0,0,0,0,0,0,0,7019,7114,6677,6652,6684,6756,7050,7075,7114,7158,6927,6991,7062,7457,7529,7527,7599,7714,7842,7986,8137,8289,8444,8596,8765,8985,9140,9350,9553,9745,9877,9837,9942,10262,11390,11648,12108,12663,12664,12506,12314,12135,11998,11912,11882,11906,11980,12102,12266,12469,12712,12995,13315,13663,14029,14400,14760,15095,15407,15702,15997,16311,16653,17018,17390,17744,18051,18312,18562,18836,19177,19627,20220,20981,21934,23119,24587,26435,28737,31795,35551,39972,44933,50360,54610,58085,60268,60937,62103,62969,63455,0,0,0,0,0,0,0,0,0,0,0,0,0,0,0,0,0,0,0,0,0,0,0,0,0,0,0,0,0,0,0,0,0,0,0,0,0,0,0,0,0,0,0,0,0,0,0,0,0,0,0,0,0,0,0,0,0,0,0,0,0,0,0,0,5857,5810,5769,5686,5657,5617,5626,0,0,0,0,0,0,0,0,0,2194,2196,2198,2201,2206,2214,2225,2238,2254,2273,2294,2317,2341,2367,2393,2418,2441,2461,2479,2493,2507,2520,2535,2552,2571,2593,2617,2642,2668,2697,2731,2769,2813,2863,2919,2981,3053,3120,3181,3232,3276,0,13022,12455,12430,12434,12436,12427,12405,12375,12341,12309,12282,12261,12247,12238,12232,12229,12228,12230,12237,12251,12279,12326,12398,12504,12654,12861,13136,13484,13912,14432,15045,15764,16618,17658,18957,20597,22712,25485,29242,35192,42968,49249,54564,58548,61252,62993,64017,64671,64974,65193,0,0,0,0,0,0,0,0,0,0,0,0,0,0,0,0,0,0,0,0,0,0,0,0,0,0,0,0,0,0,0,0,0,0,0,0,0,0,0,0,0,0,0,0,718,719,719,719,718,0,0,0,654,653,653,653,653,652,652,652,651,651,651,651,651,651,651,0,0,0,649,649,649,649,649,648,648,648,648,648,648,648,648,648,0,0,0,0,0,0,0,0,0,0,655,654,654,654,654,654,654,656,657,657,659,0,662,662,662,661,660,659,658,657,655,654,653,652,652,651,650,0,0,0,0,0,0,0,0,0,0,0,0,0,0,0,0,0,0,0,0,0,0,0,0,0,0,0,0,0,0,0,0,0,0,0,0,0,0,0,0,0,0,0,0,0,0,0,0,0,0,0,0,0,0,0,0,0,0,0,0,0,0,0,0,0,0,0,0,0,0,0,0,0,0,0,0,0,0,0,0,0,0,0,0,0,0,0,0,0,0,0,0,0,0,0,0,0,0,0,0,0,0,0,0,0,0,0,0,0,0,0,0,0,0,0,64133,0,64293,63987,63315,62888,62177,61833,61843,62716,62934,63298,62790,62122,59967,59379,57927,56429,54842,53239,51570,49734,47708,45543,43324,41177,39203,37487,36076,34972,34145,33532,33049,32610,32138,31614,31052,30436,29713,28834,27756,26523,25266,24101,23110,22318,21702,21215,20819,20477,20159,19844,19514,19143,18705,18184,17592,16964,16348,15784,15286,14848,14457,14098,13762,13448,13155,12886,12644,12429,12235,12059,11897,11752,11624,11511,11410,11318,11226,11128,11017,10889,10745,10586,10410,10231,10053,9878,9711,9556,9414,9285,9166,9053,8941,8831,8722,8620,8527,8446,8375,8312,8252,8191,8128,8061,7967,7891,7814,7738,7661,7584,7506,7427,7350,7273,7196,7119,7040,6948,6871,6815,6686,6675,6690,6923,6881,6873,7175
0,0,0,0,0,0,0,0,0,0,0,0,6944,7075,7047,7166,7170,7150,7169,7198,7140,7154,7236,7273,7338,7362,7432,7511,7588,7696,7819,7958,8105,8254,8404,8551,8704,8880,9022,9194,9370,9549,9702,9779,9949,10310,10832,11170,11514,12002,12061,12002,11906,11812,11746,11718,11734,11793,11892,12032,12211,12430,12693,13004,13357,13738,14135,14532,14910,15253,15562,15845,16122,16414,16733,17079,17437,17786,18093,18359,18611,18885,19215,19640,20191,20885,21740,22787,24073,25718,27771,30691,34302,38547,43370,49131,53404,56665,58321,59997,61703,62552,63177,0,0,0,0,0,0,0,0,0,0,0,0,0,0,0,0,0,0,0,0,0,0,0,0,0,0,0,0,0,0,0,0,0,0,0,0,0,0,0,0,0,0,0,0,0,0,0,0,0,0,0,0,0,0,0,0,0,0,0,0,0,0,0,5821,5780,5755,5582,5573,5595,5540,5547,0,0,0,0,0,0,0,0,0,2202,2204,2205,2208,2213,2221,2231,2245,2261,2280,2300,2322,2345,2370,2395,2420,2442,2462,2479,2493,2506,2518,2532,2547,2566,2586,2609,2634,2660,2689,2721,2759,2802,2850,2904,2964,3042,3109,3172,3228,3275,0,0,12124,12135,12191,12243,12281,12300,12303,12297,12289,12280,12274,12270,12268,12266,12263,12260,12257,12257,12262,12278,12312,12369,12456,12585,12768,13015,13335,13735,14223,14802,15481,16287,17269,18497,20058,22087,24789,28484,33933,40955,47552,53326,57744,60756,62721,63878,64561,64904,65156,0,0,0,0,0,0,0,0,0,0,0,0,0,0,0,0,0,0,0,0,0,0,0,0,0,0,0,0,0,0,0,0,0,0,0,0,0,0,0,0,0,0,0,0,718,718,718,718,718,0,0,0,655,653,653,653,652,652,652,651,651,651,651,651,651,651,651,0,0,0,649,649,649,649,649,648,648,648,648,648,648,648,648,648,0,0,0,0,0,0,0,0,0,655,654,655,654,654,654,654,655,656,657,658,660,661,662,662,661,660,659,658,657,656,654,653,652,652,651,651,650,0,0,0,0,0,0,0,0,0,0,0,0,0,0,0,0,0,0,0,0,0,0,0,0,0,0,0,0,0,0,0,0,0,0,0,0,0,0,0,0,0,0,0,0,0,0,0,0,0,0,0,0,0,0,0,0,0,0,0,0,0,0,0,0,0,0,0,0,0,0,0,0,0,0,0,0,0,0,0,0,0,0,0,0,0,0,0,0,0,0,0,0,0,0,0,0,0,0,0,0,0,0,0,0,0,0,0,0,0,0,0,64231,63877,63913,64111,64378,64388,64360,64032,63245,62322,61776,61663,61670,61976,62369,62882,62660,62058,59829,59332,57875,56379,54736,53106,51461,49702,47777,45698,43527,41384,39377,37610,36139,34977,34100,33445,32933,32480,32011,31499,30956,30360,29651,28779,27702,26459,25188,24008,23006,22214,21607,21137,20762,20441,20142,19842,19521,19153,18711,18184,17585,16953,16333,15768,15271,14837,14452,14100,13772,13467,13181,12914,12673,12455,12259,12079,11911,11757,11617,11489,11371,11262,11155,11044,10925,10794,10652,10497,10322,10148,9977,9806,9644,9494,9358,9237,9127,9023,8919,8814,8710,8610,8518,8436,8365,8301,8242,8184,8125,8064,7960,7890,7820,7750,7679,7608,7534,7460,7387,7315,7244,7174,7102,7002,6937,6828,6784,6722,6712,7065,7050,6423,6982
0,0,0,0,0,0,0,0,0,0,0,0,0,6955,6992,6946,7020,7022,7049,7008,7054,7112,7172,7275,7335,7372,7436,7508,7586,7687,7805,7937,8078,8224,8370,8513,8657,8811,8945,9097,9257,9424,9585,9715,9907,10215,10614,10917,11208,11542,11638,11649,11625,11596,11584,11598,11644,11724,11836,11984,12170,12398,12676,13013,13396,13807,14231,14649,15038,15385,15687,15956,16213,16482,16779,17106,17455,17805,18120,18400,18667,18948,19276,19683,20195,20824,21581,22491,23600,25078,26914,29829,33395,37459,42042,48335,52539,54750,57846,60017,60976,62096,0,0,0,0,0,0,0,0,0,0,0,0,0,0,0,0,0,0,0,0,0,0,0,0,0,0,0,0,0,0,0,0,0,0,0,0,0,0,0,0,0,0,0,0,0,0,0,0,0,0,0,0,0,0,0,0,0,0,0,0,0,0,0,0,5689,5728,5727,5553,5597,5519,5442,5402,5391,0,0,0,0,0,0,0,2219,2209,2211,2212,2215,2219,2226,2237,2251,2267,2286,2305,2326,2348,2372,2396,2420,2443,2462,2479,2493,2505,2517,2529,2544,2561,2581,2603,2628,2654,2682,2714,2750,2790,2836,2888,2945,3020,3087,3149,3210,3268,0,0,11774,11817,11923,12024,12109,12170,12210,12235,12254,12268,12281,12292,12300,12304,12303,12298,12290,12282,12278,12283,12305,12348,12421,12533,12694,12916,13208,13576,14028,14562,15187,15926,16822,17944,19379,21262,23803,27318,32345,38882,45675,51861,56731,60082,62329,63653,64404,64809,65143,65024,65303,0,0,0,0,0,0,0,0,0,0,0,0,0,0,0,0,0,0,0,0,0,0,0,0,0,0,0,0,0,0,0,0,0,0,0,0,0,0,0,0,0,0,718,719,719,719,718,0,0,0,655,653,653,653,652,652,651,651,651,650,650,650,650,650,650,0,0,0,649,649,649,649,649,648,648,648,648,648,648,648,648,648,0,0,0,0,0,0,0,0,0,653,654,654,654,654,654,654,655,656,657,658,660,661,661,661,660,660,659,657,656,655,654,653,652,651,651,651,651,0,0,0,0,0,0,0,0,0,0,0,0,0,0,0,0,0,0,0,0,0,0,0,0,0,0,0,0,0,0,0,0,0,0,0,0,0,0,0,0,0,0,0,0,0,0,0,0,0,0,0,0,0,0,0,0,0,0,0,0,0,0,0,0,0,0,0,0,0,0,0,0,0,0,0,0,0,0,0,0,0,0,0,0,0,0,0,0,0,0,0,0,0,0,0,0,0,0,0,0,0,0,0,0,0,0,0,0,0,65100,64785,64602,64361,64797,64855,64595,64718,64554,64235,63921,62329,61073,60923,60829,61147,61980,62450,62472,61931,59865,59415,58051,56680,55012,53331,51639,49861,47944,45895,43760,41633,39613,37810,36289,35074,34144,33441,32889,32407,31924,31411,30875,30290,29592,28732,27662,26420,25138,23941,22920,22112,21498,21028,20659,20347,20058,19768,19454,19090,18651,18126,17533,16909,16297,15743,15255,14831,14456,14116,13799,13506,13229,12968,12729,12513,12315,12133,11961,11798,11642,11493,11349,11214,11081,10949,10815,10678,10536,10386,10212,10047,9890,9729,9575,9433,9305,9191,9087,8989,8891,8791,8690,8591,8498,8414,8341,8277,8220,8166,8113,8071,7935,7874,7812,7750,7686,7622,7556,7490,7424,7360,7297,7236,7173,6995,6959,6889,6843,6761,7088,7099,7068,7013,7063
0,0,0,0,0,0,0,0,0,0,0,0,0,6992,6974,6967,6970,6981,7010,7049,7098,7156,7216,7297,7353,7396,7455,7522,7597,7691,7802,7926,8060,8200,8343,8485,8625,8769,8900,9042,9191,9349,9507,9656,9847,10109,10426,10694,10949,11210,11335,11397,11428,11448,11476,11520,11586,11678,11796,11945,12131,12363,12653,13014,13424,13860,14305,14738,15138,15488,15788,16048,16290,16539,16815,17125,17465,17820,18148,18447,18733,19029,19360,19755,20233,20799,21457,22223,23150,24488,26095,29156,32784,36613,39978,42784,0,0,0,0,0,0,0,0,0,0,0,0,0,0,0,0,0,0,0,0,0,0,0,0,0,0,0,0,0,0,0,0,0,0,0,0,0,0,0,0,0,0,0,0,0,0,0,0,0,0,0,0,0,0,0,0,0,0,0,0,0,0,0,0,0,0,0,0,0,0,5807,5480,5473,5453,5527,5443,5326,5275,5168,0,0,0,0,0,0,0,2222,2213,2217,2218,2220,2224,2231,2242,2256,2272,2290,2310,2330,2351,2373,2397,2420,2442,2462,2478,2492,2504,2515,2527,2541,2558,2577,2599,2624,2649,2677,2708,2742,2780,2823,2871,2924,2989,3053,3112,3181,3259,0,11227,11353,11511,11662,11806,11931,12030,12103,12159,12205,12244,12277,12305,12325,12337,12339,12334,12323,12307,12294,12289,12300,12333,12394,12490,12632,12828,13088,13419,13825,14305,14864,15521,16318,17316,18601,20303,22628,25885,30508,36667,43574,50148,55499,59211,61808,63330,64163,64635,65005,65135,65224,0,0,0,0,0,0,0,0,0,0,0,0,0,0,0,0,0,0,0,0,0,0,0,0,0,0,0,0,0,0,0,0,0,0,0,0,0,0,0,0,0,0,0,720,719,719,0,0,0,0,0,653,653,652,652,652,651,651,650,650,650,650,650,650,650,0,0,0,649,649,649,649,649,648,648,648,648,648,648,648,648,648,0,0,0,0,0,0,0,0,652,652,653,653,653,653,653,654,654,655,656,657,659,660,660,660,660,659,658,657,655,654,653,652,652,651,651,651,651,651,0,0,0,0,0,0,0,0,0,0,0,0,0,0,0,0,0,0,0,0,0,0,0,0,0,0,0,0,0,0,0,0,0,0,0,0,0,0,0,0,0,0,0,0,0,0,0,0,0,0,0,0,0,0,0,0,0,0,0,0,0,0,0,0,0,0,0,0,0,0,0,0,0,0,0,0,0,0,0,0,0,0,0,0,0,0,0,0,0,0,0,0,0,0,0,0,0,0,0,0,0,0,0,0,0,0,0,65533,65241,65050,64921,64766,64760,64796,64878,64923,64741,64432,64098,62501,61287,60664,60527,61228,61691,62080,62167,61040,60055,58838,58421,57328,55674,53932,52135,50249,48252,46171,44043,41928,39898,38064,36501,35237,34255,33499,32898,32376,31867,31342,30804,30224,29538,28694,27642,26410,25125,23913,22869,22035,21398,20913,20535,20219,19930,19641,19331,18973,18543,18031,17456,16852,16257,15720,15246,14835,14470,14141,13834,13552,13285,13033,12799,12585,12390,12207,12031,11858,11685,11510,11337,11169,11007,10850,10698,10552,10408,10265,10098,9965,9797,9650,9507,9373,9252,9143,9044,8950,8855,8758,8657,8557,8462,8376,8300,8235,8177,8125,8074,8052,7907,7851,7794,7738,7682,7626,7569,7511,7454,7398,7342,7288,7226,7049,7001,6960,6929,6896,6847,7196,0,0,7111
0,0,0,0,0,0,0,0,0,0,0,0,0,7300,7001,7000,7006,7022,7053,7095,7144,7205,7266,7336,7388,7433,7487,7548,7620,7707,7809,7925,8052,8187,8327,8468,8608,8748,8879,9016,9158,9307,9459,9609,9789,10014,10275,10515,10747,10973,11119,11219,11288,11344,11400,11465,11545,11642,11761,11908,12091,12324,12623,13006,13438,13891,14350,14794,15202,15561,15866,16127,16362,16600,16857,17153,17485,17846,18185,18500,18807,19122,19461,19849,20297,20803,21357,21966,22687,23906,25230,27412,0,0,0,0,0,0,0,0,0,0,0,0,0,0,0,0,0,0,0,0,0,0,0,0,0,0,0,0,0,0,0,0,0,0,0,0,0,0,0,0,0,0,0,0,0,0,0,0,0,0,0,0,0,0,0,0,0,0,0,0,0,0,0,0,0,0,0,0,0,0,0,0,0,5770,5783,5517,5628,5470,5376,5406,5209,5153,5080,0,0,0,0,0,0,0,0,0,2222,2222,2223,2227,2234,2245,2259,2276,2294,2313,2333,2353,2374,2397,2420,2441,2461,2477,2491,2503,2514,2526,2540,2556,2576,2598,2623,2648,2675,2704,2735,2770,2808,2850,2897,2951,3008,3064,3143,0,10450,10644,11013,11243,11430,11607,11763,11890,11991,12074,12144,12205,12258,12302,12336,12356,12364,12360,12345,12324,12303,12290,12291,12315,12366,12450,12573,12743,12969,13257,13611,14030,14518,15093,15790,16666,17797,19305,21386,24337,28538,34341,41279,48204,54056,58123,61155,62911,63834,64397,64655,64969,63979,0,0,0,0,0,0,0,0,0,0,0,0,0,0,0,0,0,0,0,0,0,0,0,0,0,0,0,0,0,0,0,0,0,0,0,0,0,0,0,0,0,0,0,0,0,0,0,0,0,0,0,652,653,652,652,651,651,650,650,650,649,649,649,650,650,0,0,0,649,649,649,649,649,648,648,648,648,648,648,648,648,648,648,0,0,0,0,0,0,650,651,651,652,652,652,652,652,653,654,655,656,657,659,660,660,659,659,658,657,656,655,654,653,652,652,651,651,651,651,651,0,0,0,0,0,0,0,0,0,0,0,0,0,0,0,0,0,0,0,0,0,0,0,0,0,0,0,0,0,0,0,0,0,0,0,0,0,0,0,0,0,0,0,0,0,0,0,0,0,0,0,0,0,0,0,0,0,0,0,0,0,0,0,0,0,0,0,0,0,0,0,0,0,0,0,0,0,0,0,0,0,0,0,0,0,0,0,0,0,0,0,0,0,0,0,0,0,0,0,0,0,0,0,0,0,0,65528,65524,65344,65235,65149,64744,64744,65062,65107,65118,64933,64683,64321,64402,61430,60946,60968,61291,61792,62227,62373,62042,61270,61507,58849,58241,56639,54852,52939,50907,48778,46614,44445,42303,40239,38361,36749,35435,34401,33591,32937,32372,31831,31289,30744,30169,29496,28672,27643,26427,25143,23917,22846,21979,21311,20800,20401,20071,19772,19479,19169,18817,18400,17910,17363,16792,16187,15678,15225,14834,14490,14181,13869,13598,13340,13096,12869,12661,12468,12285,12105,11921,11731,11530,11325,11126,10935,10755,10585,10429,10282,10141,10008,9871,9714,9577,9445,9319,9203,9097,9000,8907,8813,8716,8615,8514,8417,8328,8249,8181,8122,8068,8016,7926,7877,7823,7770,7719,7669,7622,7574,7525,7477,7428,7378,7329,7144,7231,7186,7146,7114,6941,6911,6584,6560,6507,6496
0,0,0,0,0,0,0,0,0,0,0,0,0,7309,7042,7038,7047,7065,7097,7138,7193,7255,7321,7387,7438,7482,7532,7588,7654,7734,7828,7935,8054,8184,8322,8462,8603,8742,8874,9007,9143,9284,9428,9574,9740,9937,10161,10380,10596,10806,10966,11090,11186,11265,11340,11419,11509,11611,11730,11874,12055,12289,12592,12997,13445,13902,14366,14813,15229,15598,15917,16189,16428,16662,16908,17194,17519,17887,18232,18558,18886,19222,19575,19964,20393,20852,21319,21786,22337,23583,24837,0,0,0,0,0,0,0,0,0,0,0,0,0,0,0,0,0,0,0,0,0,0,0,0,0,0,0,0,0,0,0,0,0,0,0,0,0,0,0,0,0,0,0,0,0,0,0,0,0,0,0,0,0,0,0,0,0,0,0,0,0,0,0,0,0,0,0,0,0,0,0,0,0,0,6033,6151,5713,5932,5637,5586,5289,5099,5046,4991,4859,0,0,0,0,0,0,0,2230,2226,2224,2225,2229,2236,2246,2261,2278,2297,2316,2335,2354,2374,2397,2419,2440,2459,2476,2489,2502,2513,2525,2540,2557,2578,2601,2626,2650,2675,2702,2730,2760,2792,2828,2868,2911,2960,3013,3054,0,10370,10538,10819,11041,11244,11439,11612,11758,11878,11980,12069,12148,12218,12277,12322,12352,12366,12364,12348,12323,12295,12273,12266,12282,12324,12397,12505,12653,12848,13097,13401,13762,14186,14689,15300,16066,17055,18373,20201,22816,26564,32001,38874,46094,52444,56797,60258,62241,63225,63884,63812,64293,61941,53940,0,0,0,0,0,0,0,0,0,0,0,0,0,0,0,0,0,0,0,0,0,0,0,0,0,0,0,0,0,0,0,0,0,0,0,0,0,0,0,0,0,0,0,0,0,0,0,0,0,0,652,652,652,651,651,650,650,650,649,649,649,649,649,649,0,0,0,649,650,649,649,649,648,648,648,648,648,648,648,648,648,648,0,0,0,0,649,649,650,650,651,651,651,651,651,651,652,653,654,655,656,658,659,659,659,658,657,656,655,654,654,653,652,652,652,652,652,652,652,0,0,0,0,0,0,0,0,0,0,0,0,0,0,0,0,0,0,0,0,0,0,0,0,0,0,0,0,0,0,0,0,0,0,0,0,0,0,0,0,0,0,0,0,0,0,0,0,0,0,0,0,0,0,0,0,0,0,0,0,0,0,0,0,0,0,0,0,0,0,0,0,0,0,0,0,0,0,0,0,0,0,0,0,0,0,0,0,0,0,0,0,0,0,0,0,0,0,0,0,0,0,0,0,0,0,65527,65532,65408,65349,65296,65236,65051,65229,65249,65228,65127,64848,64494,63558,62095,61690,61684,61776,62181,62909,63145,63094,62630,61885,60876,59236,57701,55916,53935,51791,49534,47261,45003,42779,40636,38681,37004,35634,34546,33684,32982,32375,31806,31248,30698,30127,29468,28663,27654,26453,25168,23925,22824,21918,21211,20665,20238,19887,19572,19271,18961,18618,18220,17761,17253,16723,16155,15673,15232,14851,14512,14180,13897,13631,13382,13146,12928,12726,12538,12355,12170,11975,11767,11542,11308,11083,10869,10671,10488,10326,10176,10036,9907,9778,9641,9515,9392,9274,9163,9059,8962,8869,8774,8677,8576,8474,8375,8284,8203,8133,8073,8019,7966,7894,7844,7792,7742,7695,7651,7610,7571,7531,7491,7449,7405,7358,7312,7262,7216,7175,7142,7112,6961,6946,6638,6533,6561
0,0,0,0,0,0,0,0,0,0,0,0,0,7323,7079,7077,7087,7106,7137,7178,7240,7308,7380,7448,7500,7543,7589,7640,7700,7772,7858,7958,8070,8194,8328,8467,8608,8746,8877,9008,9139,9273,9409,9548,9703,9881,10080,10285,10491,10691,10858,10995,11107,11202,11290,11380,11477,11584,11707,11852,12034,12267,12572,13019,13459,13908,14366,14807,15223,15603,15937,16226,16479,16719,16958,17242,17566,17950,18295,18627,18976,19339,19715,20121,20553,20993,21410,21784,22779,23360,0,0,0,0,0,0,0,0,0,0,0,0,0,0,0,0,0,0,0,0,0,0,0,0,0,0,0,0,0,0,0,0,0,0,0,0,0,0,0,0,0,0,0,0,0,0,0,0,0,0,0,0,0,0,0,0,0,0,0,0,0,0,0,0,0,0,0,0,0,0,0,0,0,0,0,0,5750,5909,5869,5825,5595,4687,5037,4986,4945,4854,0,0,0,0,0,0,0,2227,2230,2226,2226,2230,2236,2247,2262,2279,2298,2318,2336,2355,2374,2396,2417,2439,2458,2474,2488,2501,2513,2526,2541,2560,2582,2605,2631,2654,2677,2701,2724,2750,2777,2806,2837,2870,2918,2976,2985,10138,10276,10430,10669,10885,11094,11295,11476,11631,11762,11875,11975,12066,12147,12217,12273,12312,12333,12334,12318,12289,12255,12226,12211,12219,12254,12321,12419,12553,12728,12948,13216,13533,13908,14356,14900,15578,16443,17585,19166,21436,24711,29792,36512,43967,50702,55282,58943,60886,61776,62012,62124,63267,61565,57079,59753,0,0,0,0,0,0,0,0,0,0,0,0,0,0,0,0,0,0,0,0,0,0,0,0,0,0,0,0,0,0,0,0,0,0,0,0,0,0,0,0,0,0,0,0,0,0,0,0,0,652,652,652,651,651,650,650,649,649,649,649,649,649,649,0,0,0,650,650,650,649,649,648,648,648,648,648,648,648,648,648,648,0,0,0,649,649,649,649,650,650,650,650,650,650,651,651,652,653,654,655,657,658,658,658,657,656,656,655,654,653,653,652,652,652,652,652,652,653,0,0,0,0,0,0,0,0,0,0,0,0,0,0,0,0,0,0,0,0,0,0,0,0,0,0,0,0,0,0,0,0,0,0,0,0,0,0,0,0,0,0,0,0,0,0,0,0,0,0,0,0,0,0,0,0,0,0,0,0,0,0,0,0,0,0,0,0,0,0,0,0,0,0,0,0,0,0,0,0,0,0,0,0,0,0,0,0,0,0,0,0,0,0,0,0,0,0,0,0,0,0,0,0,0,0,65530,65532,65439,65414,65380,65343,65356,65365,65354,65329,65250,65032,64727,63828,63077,62744,62690,62904,63174,63413,63544,63358,62829,62103,61152,59994,58546,56815,54843,52662,50338,47983,45631,43299,41046,38994,37240,35809,34668,33759,33017,32377,31786,31218,30665,30099,29450,28656,27657,26460,25162,23893,22754,21804,21052,20466,20006,19637,19297,18989,18681,18353,17983,17564,17105,16624,16146,15695,15218,14836,14497,14188,13900,13637,13393,13168,12961,12768,12584,12401,12211,12008,11786,11541,11282,11041,10813,10605,10415,10251,10100,9962,9835,9712,9587,9469,9355,9244,9138,9037,8941,8847,8751,8653,8552,8449,8350,8257,8175,8103,8040,7983,7928,7864,7812,7760,7712,7668,7629,7593,7560,7528,7496,7460,7422,7380,7335,7287,7242,7201,7165,7137,7012,6992,6987,6961,6904
0,0,0,0,0,0,0,0,0,0,0,0,0,7469,7448,7125,7134,7151,7172,7210,7276,7352,7442,7520,7573,7615,7657,7703,7758,7822,7901,7992,8097,8215,8344,8480,8617,8753,8883,9011,9139,9269,9400,9534,9680,9846,10030,10224,10422,10615,10783,10926,11047,11151,11248,11346,11452,11568,11699,11853,12043,12285,12606,13022,13465,13908,14358,14786,15195,15579,15927,16235,16505,16760,17001,17297,17634,18055,18400,18732,19107,19511,19926,20372,20837,21296,21712,22057,23046,0,0,0,0,0,0,0,0,0,0,0,0,0,0,0,0,0,0,0,0,0,0,0,0,0,0,0,0,0,0,0,0,0,0,0,0,0,0,0,0,0,0,0,0,0,0,0,0,0,0,0,0,0,0,0,0,0,0,0,0,0,0,0,0,0,0,0,0,0,0,0,0,0,0,0,0,0,6193,6052,6008,5954,0,5473,4663,4641,4919,4826,0,0,0,0,0,0,0,2235,2227,2226,2226,2230,2236,2247,2262,2280,2299,2318,2337,2355,2373,2396,2416,2437,2456,2472,2487,2501,2513,2527,2544,2564,2587,2611,2638,2659,2680,2700,2719,2739,2760,2783,2806,2829,2861,2905,2963,10037,10196,10340,10561,10769,10975,11171,11349,11503,11635,11751,11855,11950,12037,12114,12179,12226,12254,12261,12247,12217,12178,12142,12121,12122,12153,12216,12313,12445,12615,12823,13072,13364,13708,14120,14618,15228,15992,16979,18333,20272,23079,27782,34413,42371,49000,53636,58065,59848,60717,61009,61590,63264,61742,57177,59331,0,0,0,0,0,0,0,0,0,0,0,0,0,0,0,0,0,0,0,0,0,0,0,0,0,0,0,0,0,0,0,0,0,0,0,0,0,0,0,0,0,0,0,0,0,0,0,0,651,652,652,651,651,650,650,650,649,649,649,649,649,649,649,0,0,0,652,651,650,650,649,649,648,648,648,648,648,648,649,649,649,649,648,648,649,649,649,649,650,650,649,649,649,650,650,650,651,652,653,654,656,657,657,657,656,656,655,654,653,653,652,652,652,652,652,652,652,653,0,0,0,0,0,0,0,0,0,0,0,0,0,0,0,0,0,0,0,0,0,0,0,0,0,0,0,0,0,0,0,0,0,0,0,0,0,0,0,0,0,0,0,0,0,0,0,0,0,0,0,0,0,0,0,0,0,0,0,0,0,0,0,0,0,0,0,0,0,0,0,0,0,0,0,0,0,0,0,0,0,0,0,0,0,0,0,0,0,0,0,0,0,0,0,0,0,0,0,0,0,0,0,0,0,0,65535,65534,65534,65479,65463,65446,65466,65463,65450,65424,65359,65231,65003,64478,64048,63721,63634,63644,63730,63765,63871,63663,63257,62671,61876,60349,58977,57318,55396,53243,50926,48554,46153,43738,41392,39253,37432,35949,34765,33818,33044,32382,31776,31201,30646,30080,29433,28637,27635,26425,25102,23797,22615,21618,20820,20194,19698,19292,18945,18629,18325,18013,17676,17305,16902,16476,16043,15623,15144,14732,14372,14149,13854,13594,13360,13147,12952,12770,12592,12412,12220,12011,11781,11523,11246,11001,10772,10564,10372,10213,10064,9926,9799,9679,9561,9449,9341,9236,9135,9037,8942,8848,8751,8652,8550,8448,8348,8255,8171,8095,8027,7964,7903,7839,7783,7729,7681,7639,7601,7569,7541,7514,7487,7458,7426,7388,7346,7301,7257,7216,7179,7152,7060,7046,7034,7018,6999
0,0,0,0,0,0,0,0,0,0,0,0,0,7573,7472,7490,7163,7177,7212,7246,7306,7397,7501,7603,7657,7699,7738,7779,7828,7885,7955,8038,8134,8244,8366,8495,8627,8759,8887,9014,9142,9270,9398,9529,9671,9829,10005,10192,10383,10569,10735,10878,11002,11110,11214,11320,11434,11561,11704,11870,12071,12324,12664,13084,13506,12767,13048,13411,13788,14169,15906,16232,16523,16802,17049,17380,17750,18250,18595,18923,19338,19806,20281,20794,21326,21844,22305,22679,23019,0,0,0,0,0,0,0,0,0,0,0,0,0,0,0,0,0,0,0,0,0,0,0,0,0,0,0,0,0,0,0,0,0,0,0,0,0,0,0,0,0,0,0,0,0,0,0,0,0,0,0,0,0,0,0,0,0,0,0,0,0,0,0,0,0,0,0,0,0,0,0,0,0,0,0,0,6863,6785,6312,6256,6142,6162,5506,4618,4602,5194,5033,0,0,0,0,0,0,0,0,2229,2225,2226,2230,2236,2247,2262,2280,2299,2319,2337,2354,2371,2395,2414,2437,2455,2472,2486,2502,2514,2528,2546,2568,2592,2617,2647,2664,2681,2697,2713,2728,2745,2762,2779,2796,2806,2854,2805,10024,10145,10278,10496,10694,10886,11064,11228,11371,11495,11603,11702,11794,11880,11961,12033,12090,12127,12142,12133,12105,12065,12026,11999,11996,12024,12090,12193,12335,12513,12727,12975,13259,13590,13984,14453,15016,15699,16557,17714,19366,21766,26096,32721,40122,46845,52301,54341,55614,56325,58668,59237,61796,63103,63983,53398,0,0,0,0,0,0,0,0,0,0,0,0,0,0,0,0,0,0,0,0,0,0,0,0,0,0,0,0,0,0,0,0,0,0,0,0,0,0,0,0,0,0,0,0,0,0,0,0,652,652,651,651,651,650,650,649,649,649,649,649,649,649,648,0,0,0,652,651,650,650,649,649,648,648,648,648,648,649,649,649,649,649,648,649,649,650,650,650,650,649,649,649,649,649,649,650,650,651,652,653,655,656,656,656,655,655,654,653,653,652,652,652,652,652,652,652,653,653,0,0,0,0,0,0,0,0,0,0,0,0,0,0,0,0,0,0,0,0,0,0,0,0,0,0,0,0,0,0,0,0,0,0,0,0,0,0,0,0,0,0,0,0,0,0,0,0,0,0,0,0,0,0,0,0,0,65241,65219,65210,65057,0,0,0,0,0,0,0,0,0,0,0,0,0,0,0,0,0,0,0,0,0,0,0,0,0,0,0,0,0,0,0,0,0,0,0,0,0,0,0,0,0,0,0,0,0,65535,65535,65534,65533,65532,65530,65494,65490,65480,65458,65413,65323,65178,64897,64470,64203,64020,63971,63925,63717,63593,63248,62754,62132,61348,60104,58813,57239,55392,53311,51073,48766,46394,43968,41589,39413,37560,36048,34836,33862,33067,32388,31772,31192,30631,30057,29399,28589,27569,26335,24980,23639,22416,21377,20538,19874,19345,18913,18547,18220,17916,17619,17314,16991,16645,16275,15886,15496,15023,14632,14277,13954,13750,13496,13272,13073,12892,12722,12552,12376,12186,11978,11751,11487,11198,10964,10747,10550,10361,10213,10068,9931,9803,9682,9565,9455,9350,9249,9152,9058,8964,8870,8772,8672,8570,8468,8369,8275,8188,8108,8032,7960,7890,7820,7758,7701,7651,7608,7571,7540,7513,7488,7464,7439,7410,7377,7337,7295,7253,7214,7176,7149,7094,7106,7069,7062,7048
0,0,0,0,0,0,0,0,0,0,0,0,0,7768,7649,7522,7508,7510,7225,7246,7310,7424,7562,7694,7752,7795,7831,7867,7910,7959,8020,8092,8178,8277,8388,8508,8633,8760,8887,9015,9144,9273,9402,9533,9672,9826,9996,10177,10363,10542,10703,10844,10966,11076,11183,11295,11417,11555,11710,11890,12106,12374,12746,13187,12507,12703,12943,13286,13628,13979,14317,16253,16565,16877,17130,17526,17959,18618,18961,19275,19755,20328,20888,21493,22118,22721,23256,23687,24028,0,0,0,0,0,0,0,0,0,0,0,0,0,0,0,0,0,0,0,0,0,0,0,0,0,0,0,0,0,0,0,0,0,0,0,0,0,0,0,0,0,0,0,0,0,0,0,0,0,0,0,0,0,0,0,0,0,0,0,0,0,0,0,0,0,0,0,0,0,0,0,0,0,0,0,7291,7186,8178,8097,8008,7915,7810,7709,6203,6097,5795,5768,0,0,7169,7187,0,7230,7227,0,0,2227,2227,2234,2236,2247,2261,2279,2299,2318,2336,2352,2367,2389,2402,0,6685,0,0,2505,2516,2528,2547,2572,2596,2622,2655,2668,2680,2692,2704,2716,2728,2742,2755,2768,2772,2769,2766,0,10122,10245,10480,10661,10829,10975,11115,11237,11344,11435,11520,11601,11681,11762,11839,11905,11954,11981,11982,11961,11926,11889,11863,11860,11891,11964,12079,12237,12432,12661,12917,13204,13531,13919,14372,14904,15528,16284,17280,18695,20743,24564,31908,38670,44954,50001,51250,51966,52510,52303,53522,57893,60388,62739,64672,0,0,0,0,0,0,0,0,0,0,0,0,0,0,0,0,0,0,0,0,0,0,0,0,0,0,0,0,0,0,0,0,0,0,0,0,0,0,0,0,0,0,0,0,0,0,0,652,652,652,651,651,651,650,650,649,649,649,649,649,649,649,648,0,0,0,651,651,650,650,649,649,648,648,648,648,648,649,649,649,649,649,649,649,650,650,650,650,650,650,649,649,649,649,649,649,650,650,651,652,655,654,655,654,654,654,653,653,652,652,651,651,651,652,652,652,653,653,0,0,0,0,0,0,0,0,0,0,0,0,0,0,0,0,0,0,0,0,0,0,0,0,0,0,0,0,0,0,0,0,0,0,0,0,0,0,0,0,0,0,0,0,0,0,0,0,0,0,0,0,0,0,65495,65412,65322,65196,64976,64556,63950,63122,62152,60962,0,0,0,0,0,0,0,0,0,0,0,0,0,0,0,0,0,0,0,0,0,0,0,0,0,0,0,0,0,0,0,0,0,0,0,0,0,0,0,65535,65535,65535,65535,65535,65534,65534,65532,65530,65516,65510,65499,65475,65431,65354,65227,65008,64681,64392,64117,63861,63593,63231,62841,62324,61706,61016,60220,59131,57910,56422,54667,52696,50609,48460,46223,43893,41581,39448,37618,36111,34891,33903,33090,32397,31769,31179,30603,30007,29322,28483,27433,26171,24786,23416,22163,21093,20225,19531,18976,18520,18134,17796,17489,17204,16927,16648,16354,16034,15688,15325,14957,14573,14211,13884,13605,13356,13140,12952,12784,12623,12462,12292,12110,11911,11700,11439,11138,10931,10739,10564,10380,10251,10110,9974,9842,9716,9597,9485,9381,9283,9189,9098,9007,8913,8816,8715,8613,8511,8411,8315,8224,8136,8051,7968,7887,7808,7737,7675,7622,7578,7540,7507,7479,7454,7430,7405,7379,7348,7309,7270,7230,7192,7153,7129,7098,7100,7094,7096,7077
0,0,0,0,0,0,0,0,0,0,0,0,0,7752,7527,7528,7516,7517,7538,7230,7292,7684,7637,7804,7865,7906,7938,7969,8006,8045,8095,8154,8225,8310,8408,8518,8635,8757,8883,9012,9144,9277,9409,9540,9678,9829,9994,10171,10350,10522,10678,10814,10933,11041,11149,11263,11390,11536,11703,11897,12129,12414,12840,12322,12472,12639,12841,13187,13500,13822,14135,14428,14693,17027,17268,18101,18694,19267,19592,19864,20454,21200,21872,22588,23317,24013,24632,25143,25540,0,0,0,0,0,0,0,0,0,0,0,0,0,0,0,0,0,0,0,0,0,0,0,0,0,0,0,0,0,0,0,0,0,0,0,0,0,0,0,0,0,0,0,0,0,0,0,0,0,0,0,0,0,0,0,0,0,0,0,0,0,0,0,0,0,0,0,0,0,0,0,0,0,0,0,7895,7818,7687,7510,8087,7297,7837,7697,7489,7346,6684,6818,6903,6983,7057,7111,7138,7166,7181,7183,7189,0,0,0,0,0,0,0,0,0,0,6366,6468,6601,6615,6637,6668,6666,6667,0,0,2530,0,0,0,0,2664,2668,2675,2683,2691,2701,2711,2723,2735,2746,2752,2753,2756,0,10163,10216,10520,10682,10814,10914,11021,11114,11194,11258,11320,11384,11453,11530,11609,11685,11747,11788,11805,11798,11775,11748,11731,11737,11777,11861,11991,12166,12377,12618,12883,13171,13491,13873,14313,14822,15401,16071,16921,18106,19771,22836,29721,36644,42148,46606,47190,47105,47378,47071,48445,54857,58476,62127,0,0,0,0,0,0,0,0,0,0,0,0,0,0,0,0,0,0,0,0,0,0,0,0,0,0,0,0,0,0,0,0,0,0,0,0,0,0,0,0,0,0,0,0,0,0,0,0,651,652,652,651,651,650,650,649,649,649,648,648,649,649,649,649,0,0,0,651,651,650,650,649,648,648,648,648,648,648,649,649,650,650,650,0,0,651,651,651,651,650,650,649,649,648,648,648,648,649,649,650,650,0,653,653,653,653,653,652,652,651,651,651,651,651,651,652,652,653,653,0,0,0,0,0,0,0,0,0,0,0,0,0,0,0,0,0,0,0,0,0,0,0,0,0,0,0,0,0,0,0,0,0,0,0,0,0,0,0,0,0,0,0,0,0,0,0,0,0,0,0,0,65522,65470,65423,65347,65205,64979,64601,63977,63078,61868,60391,58668,55956,0,0,0,0,0,0,0,0,0,0,0,0,0,0,0,0,0,0,0,0,0,0,0,0,0,0,0,0,0,0,0,0,0,0,65535,65535,65535,65535,65535,65535,65535,65535,65535,65534,65533,65532,65529,65523,65514,65498,65470,65420,65334,65191,64948,64591,64186,63727,63245,62710,62081,61415,60670,59868,59076,58242,57236,56077,54693,53072,51267,49415,47526,45542,43436,41317,39330,37592,36135,34933,33942,33116,32404,31756,31143,30536,29900,29169,28285,27198,25908,24498,23115,21851,20769,19886,19178,18607,18137,17739,17395,17087,16812,16559,16317,16068,15792,15483,15145,14788,14414,14055,13729,13446,13198,12987,12806,12646,12493,12338,12177,12007,11828,11649,11588,11069,10906,10750,10602,10400,10317,10181,10043,9906,9774,9649,9534,9430,9334,9244,9157,9071,8981,8886,8786,8683,8578,8474,8373,8274,8177,8081,7985,7892,7804,7726,7658,7602,7554,7514,7479,7448,7420,7394,7368,7341,7311,7269,7232,7194,7158,7114,7095,7073,7081,7079,7082,7082
0,0,0,0,0,0,0,0,0,0,0,0,7804,7784,7550,7536,6450,6495,7127,7218,7288,7334,7811,7928,7993,8033,8060,8085,8118,8145,8182,8224,8279,8347,8431,8528,8636,8753,8877,9008,9144,9280,9414,9547,9684,9832,9993,10164,10337,10502,10651,10780,10893,10997,11101,11213,11341,11490,11664,11867,12110,12410,12925,12287,12425,12568,12734,13126,13424,13728,14023,14301,14554,17880,14824,18642,15596,16003,20484,20684,21468,22513,23321,24147,24960,25721,26399,26977,27450,32398,33995,0,0,0,0,0,0,0,0,0,0,0,0,0,0,0,0,0,0,0,0,0,0,0,0,0,0,0,0,0,0,0,0,0,0,0,0,0,0,0,0,0,0,0,0,0,0,0,0,0,0,0,0,0,0,0,0,0,0,0,0,0,0,0,0,0,0,0,0,0,0,0,0,7774,7986,7915,7779,7742,7621,7452,7302,7165,6992,6876,6819,6884,6938,6990,7052,7096,7122,7144,7157,7160,7154,7137,7123,7101,7070,7012,6958,6822,6749,6715,6670,6633,6620,6615,6623,6636,6652,6650,6649,6455,0,0,0,0,0,0,2665,2660,2662,2667,2674,2683,2693,2704,2715,2726,2734,2739,2748,2744,10208,10685,10606,10758,10852,10888,10955,11012,11060,11088,11121,11161,11216,11286,11366,11449,11524,11582,11617,11629,11626,11616,11615,11635,11689,11787,11931,12117,12335,12578,12837,13112,13409,13778,14201,14697,15255,15872,16622,17661,19094,20570,27814,33849,38657,41506,42183,41294,41380,40830,42278,51235,56223,60040,0,0,0,0,0,0,0,0,0,0,0,0,0,0,0,0,0,0,0,0,0,0,0,0,0,0,0,0,0,0,0,0,0,0,0,0,0,0,0,0,0,0,0,0,0,0,0,0,652,652,652,652,651,650,649,649,648,648,648,648,648,649,649,648,0,0,0,651,650,650,649,648,648,648,647,648,648,648,649,649,650,650,651,652,653,652,652,651,651,650,650,649,649,648,648,648,648,648,648,649,649,0,652,652,652,652,652,651,651,651,651,650,651,651,651,652,652,652,653,0,0,0,0,0,0,0,0,0,0,0,0,0,0,0,0,0,0,0,0,0,0,0,0,0,0,0,0,0,0,0,0,0,0,0,0,0,0,0,0,0,0,0,0,0,0,0,0,0,0,0,65519,65505,65441,65369,65245,65025,64661,64067,63136,61814,60074,57955,55511,52489,47425,45124,0,39838,38757,0,0,0,0,0,0,0,0,0,0,0,0,0,0,0,0,0,0,0,0,0,0,0,0,0,0,0,65535,65535,65535,65535,65535,65535,65535,65535,65535,65535,65534,65534,65533,65531,65527,65519,65506,65483,65443,65371,65248,65040,64701,64206,63575,62810,61986,61082,60081,59068,58032,56998,56077,55195,54245,53171,51946,50541,48988,47461,45931,44312,42558,40760,39030,37464,36109,34952,33971,33133,32397,31719,31066,30407,29708,28911,27967,26836,25520,24097,22717,21463,20391,19515,18811,18240,17771,17377,17041,16742,16480,16249,16036,15822,15581,15302,14985,14638,14272,13916,13589,13302,13053,12843,12665,12508,12356,12201,12042,11876,11701,11524,11257,11070,10923,10787,10657,10543,10395,10260,10120,9978,9841,9712,9596,9492,9400,9316,9236,9157,9074,8983,8885,8780,8671,8560,8450,8341,8232,8124,8016,7912,7816,7730,7657,7597,7547,7503,7464,7428,7395,7366,7337,7309,7279,7171,7142,7117,7098,7066,7052,7039,7050,7052,7061,7048
0,0,0,0,0,0,0,0,0,0,0,0,7816,7801,7758,7545,7532,7536,7140,7224,7299,7353,7888,8053,8136,8178,8200,8219,8249,8263,8286,8309,8344,8393,8460,8544,8641,8752,8874,9005,9143,9283,9419,9553,9689,9834,9991,10156,10323,10480,10620,10741,10846,10942,11038,11144,11266,11412,11583,11786,12030,12332,11979,12248,12377,12496,12620,0,0,0,21058,0,0,35044,14654,28233,29143,16016,16506,22169,22731,24323,25263,26140,26967,27720,28398,29008,29550,33444,34867,0,0,0,0,0,0,0,0,0,0,0,0,0,0,0,0,0,0,0,0,0,0,0,0,0,0,0,0,0,0,0,0,0,0,0,0,0,0,0,0,0,0,0,0,0,0,0,0,0,0,0,0,0,0,0,0,0,0,0,0,0,0,0,0,0,0,0,0,0,0,0,0,8130,8097,8042,7961,7852,7741,7603,7447,7293,7123,6990,6937,6953,6977,7007,7047,7078,7099,7116,7126,7132,7131,7122,7112,7094,7066,7023,6970,6896,6825,6756,6699,6663,6643,6634,6633,6634,6637,6629,6621,6433,0,0,0,0,0,0,2642,2645,2643,2647,2654,2662,2672,2684,2697,2709,2719,2726,2743,2738,10714,10610,10743,10908,10962,10910,10930,10947,10958,10941,10940,10954,10993,11053,11132,11221,11308,11382,11437,11470,11488,11500,11517,11553,11621,11731,11883,12070,12277,12500,12731,12969,13218,13561,13962,14457,15018,15611,16288,17225,18477,19916,26583,30825,32339,37371,36925,35377,34981,34706,36113,41618,52657,0,0,0,0,0,0,0,0,0,0,0,0,0,0,0,0,0,0,0,0,0,0,0,0,0,0,0,0,0,0,0,0,0,0,0,0,0,0,0,0,0,0,0,0,0,0,0,0,0,0,652,652,652,651,650,649,648,648,648,648,648,648,648,648,649,0,0,650,650,650,649,649,648,647,647,647,647,647,648,648,649,649,650,651,652,652,652,651,651,651,650,649,649,648,648,648,647,647,647,648,648,648,648,650,650,651,651,651,650,650,650,650,650,650,650,651,651,652,652,653,0,0,0,0,0,0,0,0,0,0,0,0,0,0,0,0,0,0,0,0,0,0,0,0,0,0,0,0,0,0,0,0,0,0,0,0,0,0,0,0,0,0,0,0,0,0,0,0,0,0,65521,65513,65450,65399,65294,65108,64786,64251,63392,62091,60300,58031,55371,52416,49135,44970,42231,37871,36154,34509,32600,0,0,0,0,0,0,0,0,0,8679,8585,8534,8504,8498,8509,8527,8533,8629,0,0,0,0,0,0,0,0,65535,65535,65535,65535,65535,65535,65535,65535,65535,65535,65534,65533,65531,65528,65522,65510,65489,65452,65386,65270,65073,64747,64216,63448,62431,61192,59880,58484,57012,55604,54259,52987,51954,51044,50170,49237,48264,47191,45981,44856,43758,42592,41290,39916,38539,37215,36008,34926,33966,33115,32349,31626,30916,30189,29411,28534,27521,26345,25008,23574,22212,20985,19941,19092,18411,17863,17418,17049,16743,16466,16225,16014,15825,15636,15421,15165,14865,14528,14169,13815,13486,13195,12944,12732,12553,12395,12241,12086,11931,11772,11608,11444,11237,11078,10948,10825,10708,10596,10463,10330,10190,10046,9907,9778,9663,9563,9476,9400,9330,9262,9188,9104,9010,8905,8791,8672,8551,8430,8308,8187,8068,7955,7851,7759,7682,7617,7562,7514,7469,7426,7388,7353,7320,7290,7257,7138,7107,7080,7062,7024,7014,7005,7003,7005,7011,7013
0,0,0,0,0,0,0,0,0,0,0,0,0,7852,7775,7733,7696,7669,7584,7631,7721,8173,8256,8186,8307,8353,8369,8380,8413,8408,8417,8417,8428,8455,8503,8570,8656,8758,8876,9006,9144,9285,9424,9558,9694,9837,9989,10149,10309,10458,10589,10701,10796,10881,10966,11060,11171,11303,11460,11644,11865,12135,11848,0,0,28785,0,0,0,0,0,43523,42885,32245,32367,31575,30446,30317,30018,17853,24028,26610,27660,28446,29154,29788,30387,30986,31595,33886,35495,0,0,0,0,0,0,0,0,0,0,0,0,0,0,0,0,0,0,0,0,0,0,0,0,0,0,0,0,0,0,0,0,0,0,0,0,0,0,0,0,0,0,0,0,0,0,0,0,0,0,0,0,0,0,0,0,0,0,0,0,0,0,0,0,0,0,0,0,0,0,0,0,8225,8172,8127,8060,7967,7858,7721,7563,7403,7239,7113,7030,7010,7007,7020,7040,7058,7071,7083,7092,7099,7103,7102,7097,7085,7062,7025,6976,6911,6845,6782,6730,6694,6670,6655,6645,6633,6622,6605,6589,6363,0,0,0,0,0,0,2633,2630,2621,2624,2630,2639,2651,2665,2679,2693,2705,2713,0,0,10568,10787,10965,11165,11171,10983,10950,10922,10894,10823,10787,10773,10798,10851,10928,11022,11118,11206,11278,11331,11370,11401,11436,11486,11564,11679,11827,11996,12169,12343,12523,12701,12874,13188,13564,14077,14674,15275,15906,16789,17906,19233,23953,26164,29187,33615,31995,30572,30351,30257,30183,0,0,0,0,0,0,0,0,0,0,0,0,0,0,0,0,0,0,0,0,0,0,0,0,0,0,0,0,0,0,0,0,0,0,0,0,0,0,0,0,0,0,0,0,0,0,0,0,0,0,0,0,653,652,651,651,649,648,647,647,647,647,647,647,648,648,648,649,649,649,649,649,648,648,647,647,647,646,647,647,647,648,648,649,649,650,651,651,651,651,650,650,650,649,648,648,647,647,647,647,647,647,647,647,647,649,649,649,650,650,650,649,649,649,649,649,650,650,650,651,651,652,0,0,0,0,0,0,0,0,0,0,0,0,0,0,0,0,0,0,0,0,0,0,0,0,0,0,0,0,0,0,0,0,0,0,0,0,0,0,0,0,0,0,0,0,0,0,0,0,0,65525,65520,65469,65426,65347,65199,64939,64495,63761,62605,60904,58648,55923,52878,49636,46247,42518,39560,36010,33825,31773,29736,28124,13058,12313,0,0,0,0,0,0,8742,8632,8556,8509,8490,8490,8498,8502,8528,0,0,0,0,0,0,0,7347,65535,65535,65535,65535,65535,65535,65535,65535,65535,65534,65533,65532,65529,65523,65513,65494,65460,65399,65289,65100,64778,64250,63397,62187,60588,58680,56742,54773,52801,51049,49490,48069,47008,46135,45392,44669,44041,43391,42563,41866,41219,40535,39719,38813,37840,36802,35782,34801,33877,33019,32221,31448,30672,29868,29007,28047,26966,25745,24389,22939,21597,20406,19405,18598,17959,17456,17059,16743,16495,16258,16047,15858,15686,15513,15315,15075,14789,14463,14111,13758,13428,13132,12876,12659,12476,12316,12159,12003,11853,11704,11552,11403,11234,11094,10972,10857,10743,10632,10506,10377,10241,10101,9966,9841,9730,9635,9555,9486,9427,9369,9306,9232,9145,9042,8926,8802,8672,8539,8406,8274,8145,8024,7914,7817,7735,7665,7605,7551,7497,7446,7402,7362,7322,7288,7252,7120,7086,7057,6994,6995,6987,6979,6965,6964,6969,6983
0,0,0,0,0,0,0,0,0,0,0,0,0,0,0,0,0,0,0,0,7797,13935,8339,8291,8507,8565,8571,8573,8621,8592,8588,8557,8539,8540,8564,8613,8683,8775,8885,9011,9148,9289,9428,9564,9700,9842,9992,10148,10302,10443,10565,10667,10752,10826,10898,10977,11071,11184,11320,11483,11519,11718,11611,0,0,35169,0,0,0,0,0,46991,36897,37492,37452,36667,35874,33888,32441,32346,31343,29427,30322,30785,31190,31580,32022,32560,33187,34764,35664,0,0,0,0,0,0,0,0,0,0,0,0,0,0,0,0,0,0,0,0,0,0,0,0,0,0,0,0,0,0,0,0,0,0,0,0,0,0,0,0,0,0,0,0,0,0,0,0,0,0,0,0,0,0,0,0,0,0,0,0,0,0,0,0,0,0,0,0,0,0,0,8236,8293,8216,8175,8116,8035,7931,7800,7648,7491,7336,7207,7113,7067,7041,7032,7033,7037,7043,7050,7058,7066,7074,7079,7080,7074,7058,7028,6985,6928,6869,6811,6762,6725,6698,6676,6656,6632,6607,6580,6557,6355,0,0,0,0,0,0,2618,2616,2599,2601,2606,2615,2628,2644,2661,2678,2692,2703,2713,0,10990,11005,11250,11511,11466,11067,10990,10926,10868,10733,10662,10624,10640,10689,10766,10864,10967,11065,11150,11217,11273,11319,11366,11425,11506,11617,11747,11879,11994,12096,12204,12303,12374,12664,13017,13576,14250,14899,15503,16396,17450,18689,20877,24327,26849,26939,29164,27540,27880,27869,24619,0,0,0,0,0,0,3348,3361,3385,0,0,0,0,0,0,0,0,0,0,0,0,0,0,0,0,0,0,0,0,0,0,0,0,0,0,0,0,0,0,0,0,0,0,0,0,0,0,0,0,0,0,0,653,652,651,650,648,647,646,646,646,646,647,647,647,648,648,648,648,648,648,648,648,647,647,646,646,646,646,646,647,647,648,648,649,649,649,650,650,650,649,649,649,648,647,647,647,646,646,646,646,646,646,646,646,647,648,648,648,649,649,649,648,648,648,649,649,649,650,650,650,650,0,0,0,0,0,0,0,0,0,0,0,0,0,0,0,0,0,0,0,0,0,0,0,0,0,0,0,0,0,0,0,0,0,0,0,0,0,0,0,0,0,0,0,0,0,0,0,0,65529,65524,65487,65455,65396,65288,65093,64753,64177,63234,61774,59681,57006,53918,50615,47226,43809,40291,37208,33950,31418,29039,26795,22594,13295,12514,11760,11082,10529,10055,9640,9272,8859,8699,8588,8516,8478,8462,8455,8443,8403,8321,0,0,7491,7572,7481,7494,7293,7317,7309,65535,65535,65535,65535,65535,65535,65534,65534,65532,65530,65525,65516,65499,65468,65412,65313,65136,64830,64315,63476,62137,60289,57904,55157,52528,50007,47622,45686,44087,42648,41668,40914,40376,39940,39746,39604,39168,38886,38653,38397,38008,37530,36951,36198,35380,34521,33651,32797,31978,31163,30324,29447,28507,27470,26331,25075,23703,22219,20897,19746,18795,18040,17457,17016,16686,16445,16288,16108,15936,15770,15611,15448,15258,15029,14753,14436,14092,13743,13412,13111,12848,12622,12432,12267,12114,11944,11801,11662,11523,11388,11241,11109,10988,10872,10756,10643,10523,10400,10272,10142,10015,9897,9792,9700,9623,9560,9506,9456,9401,9335,9255,9157,9044,8920,8788,8651,8511,8373,8239,8113,8000,7899,7813,7738,7671,7610,7545,7482,7431,7387,7338,7300,7260,7113,7056,7017,6986,6980,6971,6963,6954,6952,6960,7002
0,0,0,0,0,0,0,0,0,0,0,17221,17006,16542,14420,14442,0,0,0,20909,20594,20166,19651,19180,8767,8821,8796,8790,8879,8818,8809,8738,8682,8651,8648,8673,8726,8803,8903,9023,9155,9294,9433,9570,9708,9851,10001,10155,10304,10438,10553,10646,10721,10784,10844,10908,10984,11078,11195,11304,11356,11662,0,0,0,0,0,0,0,0,0,44669,42375,41308,40675,40225,37550,36780,35169,34004,33025,31440,32445,32454,32537,32692,33007,33519,34191,35413,36781,0,0,0,0,0,0,0,0,0,0,0,0,0,0,0,0,0,0,0,0,0,0,0,0,0,0,0,0,0,0,0,0,0,0,0,0,0,0,0,0,0,0,0,0,0,0,0,0,0,0,0,0,0,0,0,0,0,0,0,0,0,0,0,0,0,0,0,0,0,0,0,8250,8267,8221,8181,8127,8055,7960,7841,7702,7555,7410,7283,7182,7116,7071,7044,7029,7021,7019,7021,7028,7037,7047,7056,7062,7062,7052,7029,6992,6944,6890,6836,6790,6753,6722,6695,6667,6630,6594,6557,6527,6471,0,0,0,0,0,0,0,2597,2576,2577,2582,2591,2604,2621,2640,2660,2677,2692,2707,0,0,15212,15416,15000,15047,0,2976,2982,2988,10658,10560,10500,10518,10567,10648,10749,10859,10964,11055,11131,11198,11253,11307,11368,11445,11545,11647,11727,11763,11773,11797,11802,11741,12027,12354,12993,13793,14526,15103,16068,17095,18214,20236,24118,26649,25743,0,24684,22324,0,0,0,0,0,0,0,3280,3305,3333,3373,0,0,0,0,0,0,0,0,0,0,0,0,0,0,0,0,0,0,0,0,0,0,0,0,0,0,0,0,0,0,0,0,0,0,0,0,0,0,0,0,0,0,0,0,0,648,0,646,646,645,645,645,646,646,646,647,647,647,647,647,647,647,647,647,646,646,645,645,645,645,646,646,646,647,647,648,648,648,648,648,648,648,648,647,647,647,646,646,645,645,645,645,645,645,645,645,646,646,647,647,647,648,648,648,647,648,648,648,648,648,648,648,648,647,0,0,0,0,0,0,0,0,0,0,0,0,0,0,0,0,0,0,0,0,0,0,0,0,0,0,0,0,0,0,0,0,0,0,0,0,0,0,0,0,0,0,0,0,0,0,0,65527,65521,65481,65441,65367,65233,64994,64579,63879,62746,61012,58576,55549,52172,48689,45222,41802,38380,35198,31984,29159,26460,23892,19358,13628,12840,11920,11170,10564,10066,9641,9277,8924,8737,8604,8515,8461,8429,8404,8372,8316,8221,8041,7915,7727,7412,7240,7192,7184,7160,7099,7051,7014,6982,65535,65535,65535,65534,65533,65531,65527,65519,65504,65478,65430,65343,65187,64910,64436,63646,62377,60378,57721,54409,50761,47524,44611,42001,40093,38627,37262,36432,35837,35538,35413,35702,36144,36081,36189,36306,36390,36316,36169,35928,35419,34792,34061,33261,32427,31607,30765,29873,28930,27921,26818,25634,24356,22972,21422,20116,19010,18114,17419,16899,16529,16280,16129,16098,15992,15869,15730,15581,15422,15235,15010,14742,14434,14099,13756,13424,13118,12845,12607,12405,12233,12075,11939,11764,11635,11505,11380,11244,11114,10990,10869,10749,10634,10518,10404,10288,10171,10055,9944,9842,9751,9673,9607,9552,9501,9447,9385,9309,9217,9110,8993,8866,8733,8597,8460,8328,8203,8090,7989,7900,7821,7749,7680,7602,7525,7468,7419,7407,7250,7206,7110,7074,7035,6977,6968,6988,6978,6967,6962,6988,6997
0,0,0,0,0,0,0,0,19639,19438,20777,17750,17306,15495,15027,14857,14379,14244,14263,20969,20602,20081,19426,18807,17264,9522,9446,9379,9193,9079,9086,8962,8860,8790,8754,8752,8783,8843,8930,9040,9165,9301,9439,9577,9717,9863,10014,10168,10314,10444,10553,10639,10706,10761,10809,10859,10918,10996,11011,11115,11334,11242,0,0,0,0,0,0,0,0,0,0,51055,44256,43669,43119,39632,38762,36867,35640,35324,33867,33576,33158,32982,32997,33270,33815,34560,35621,36596,0,0,0,0,0,0,0,0,0,0,0,0,0,0,0,0,0,0,0,0,0,0,0,0,0,0,0,0,0,0,0,0,0,0,0,0,0,0,0,0,0,0,0,0,0,0,0,0,0,0,0,0,0,0,0,0,0,0,0,0,0,0,0,0,0,0,0,0,0,0,8314,8238,8236,8193,8152,8102,8038,7956,7851,7729,7597,7464,7342,7237,7159,7099,7057,7029,7011,7002,7000,7005,7013,7025,7036,7045,7051,7045,7027,6997,6956,6906,6855,6811,6774,6741,6710,6677,6630,6585,6543,6510,6462,0,0,0,0,0,0,0,0,2555,2554,2557,2564,2577,2594,2614,2636,2656,2674,2698,2730,0,0,15886,15505,15532,2943,2959,2970,2979,2984,10462,10411,10434,10487,10572,10678,10792,10900,10993,11071,11146,11206,11261,11320,11388,11477,11547,11568,11506,11409,11343,11244,11011,11331,11619,12377,13361,14226,14747,15405,16467,17431,0,0,0,0,0,0,0,0,0,0,0,0,0,3237,3268,3285,3304,0,0,0,0,0,0,0,0,0,0,0,0,0,0,0,0,0,0,0,0,0,0,0,0,0,0,0,0,0,0,0,0,0,0,0,0,0,0,0,0,0,0,0,0,0,646,645,644,645,645,645,645,645,645,645,646,646,646,646,647,647,647,646,646,646,645,645,645,644,644,645,645,645,646,646,646,646,647,647,647,647,647,647,647,646,646,646,645,645,645,644,644,644,644,644,644,644,645,645,646,646,646,647,647,647,647,647,647,647,647,647,647,647,647,646,645,0,0,0,0,0,0,0,0,0,0,0,0,0,0,0,0,0,0,0,0,0,0,0,0,0,0,0,0,0,0,0,0,0,0,0,0,0,0,0,0,0,0,0,0,0,0,0,65486,65476,65429,65344,65191,64918,64446,63653,62372,60425,57715,54395,50776,47155,43650,40255,36909,33714,30542,27614,24822,22193,18938,14642,13138,12139,11293,10615,10085,9645,9281,8960,8759,8613,8512,8445,8398,8356,8307,8237,8136,7984,7881,7659,7565,7382,7195,7167,7136,7082,7035,6993,6954,6890,6853,6734,65534,65533,65530,65524,65512,65490,65452,65380,65251,65024,64619,63932,62802,61021,58249,54738,50525,46089,42486,39434,36791,35070,33823,32518,31820,31341,31235,31359,32114,33208,33461,33918,34310,34635,34742,34807,34833,34495,34030,33424,32703,31900,31099,30251,29316,28317,27248,26086,24873,23585,22189,20520,19226,18170,17341,16712,16260,15967,15803,15754,15893,15876,15810,15701,15566,15409,15222,14998,14735,14437,14112,13777,13447,13136,12851,12600,12385,12203,12048,11905,11735,11611,11572,11369,11238,11105,10976,10850,10726,10610,10499,10393,10289,10184,10079,9974,9872,9777,9692,9618,9554,9495,9436,9371,9295,9208,9109,9001,8885,8763,8637,8510,8385,8267,8159,8061,7973,7892,7816,7743,7650,7581,7524,7473,7430,7398,7368,7600,7581,6907,7001,6986,6977,6965,6997,6985,6973,6975
0,0,0,0,0,0,0,0,22069,21291,20980,20702,20403,17220,16143,15707,14798,14605,14652,21058,20680,20138,19457,18912,17720,0,0,9727,9693,9417,9414,9224,9066,8951,8878,8846,8853,8893,8964,9062,9178,9307,9443,9581,9723,9871,10026,10181,10327,10456,10561,10642,10704,10751,10790,10828,10872,10937,10938,11150,11206,0,0,0,0,0,0,0,0,0,0,0,56162,53527,53706,52950,42520,41835,40859,38687,37512,35817,31418,32683,32488,32528,32869,33511,34360,35383,36314,0,0,0,0,0,0,0,0,0,0,0,0,0,0,0,0,0,0,0,0,0,0,0,0,0,0,0,0,0,0,0,0,0,0,0,0,0,0,0,0,0,0,0,0,0,0,0,0,0,0,0,0,0,0,0,0,0,0,0,0,0,0,0,0,0,0,0,0,0,0,8286,8230,8195,8152,8108,8060,8004,7933,7844,7739,7622,7501,7385,7280,7195,7123,7070,7033,7007,6994,6987,6989,6997,7009,7021,7031,7041,7039,7025,7000,6964,6916,6868,6825,6788,6755,6723,6689,6632,6582,6537,6499,0,0,0,0,0,0,0,0,0,2534,2530,2529,2534,2545,2560,2580,2601,2623,2643,2678,2724,2753,0,0,0,2875,2911,2934,2950,2964,2974,2980,10367,10383,10449,10537,10645,10763,10871,10961,11035,11117,11179,11233,11288,11347,11405,11479,11440,11265,11047,10897,10689,10231,10658,10883,11821,11861,0,0,5505,5502,5512,5534,5555,5583,0,0,0,0,0,0,0,0,0,0,3228,3247,3278,3289,0,0,0,0,0,0,0,0,0,0,0,0,0,0,0,0,0,0,0,0,0,0,0,0,0,0,0,0,0,0,0,0,0,0,0,0,0,0,0,0,0,0,0,0,645,645,644,644,644,644,644,644,644,645,645,645,646,646,646,646,646,646,646,645,645,645,644,644,644,644,644,644,644,645,645,645,645,646,646,646,646,646,646,645,645,645,645,644,644,644,644,643,643,643,643,643,643,644,644,645,645,646,646,646,646,646,646,646,646,646,646,646,646,646,645,645,0,0,0,0,0,0,0,0,0,0,0,0,0,0,0,0,0,0,0,0,0,0,0,0,0,0,0,0,0,0,0,0,0,0,0,0,0,0,0,0,0,0,0,0,0,0,65509,65485,65473,65422,65330,65164,64869,64360,63502,62119,60017,57097,53527,49691,45947,42411,39045,35774,32623,29529,26611,23834,21229,18430,15212,13625,12477,11486,10703,10128,9663,9292,8986,8777,8625,8516,8438,8378,8321,8256,8174,8070,7935,7742,7637,7490,7264,7213,7170,7123,7070,7022,6978,6937,6885,6852,6830,6799,6734,65526,65521,65506,65475,65425,65328,65158,64860,64325,63430,61981,59737,56242,52056,47145,42108,38381,35340,32684,31175,30129,28752,28099,27635,27637,27898,29081,30962,31447,32220,32813,33284,33422,33572,33797,33534,33186,32682,32031,31254,30490,29652,28677,27620,26490,25267,24033,22749,21339,19461,18176,17180,16434,15885,15507,15295,15217,15275,15649,15734,15731,15658,15539,15385,15197,14973,14714,14425,14113,13788,13462,13147,12854,12591,12364,12173,12013,11872,11709,11585,11467,11349,11217,11079,10946,10817,10692,10575,10467,10367,10270,10174,10075,9972,9869,9767,9672,9588,9512,9443,9375,9303,9226,9140,9048,8949,8845,8736,8624,8510,8397,8290,8190,8097,8011,7932,7855,7782,7665,7602,7542,7487,7440,7401,7364,7585,7561,7532,7514,6964,6955,6940,6928,6953,6940,6941
0,0,0,0,0,0,0,20528,21788,21434,21180,21070,20690,17472,15919,0,15798,15928,15203,14235,13990,13647,13437,19115,18082,17276,16440,15801,10690,10010,9796,9519,9291,9124,9011,8948,8928,8948,9002,9085,9191,9313,9444,9581,9725,9876,10033,10190,10339,10468,10572,10651,10709,10750,10780,10807,10837,10889,10714,0,0,0,0,0,0,0,0,0,0,0,0,0,0,0,52867,51945,0,42606,41480,40243,38937,35931,30412,31600,31475,31597,32044,32800,33759,34812,35842,38006,0,0,0,0,0,0,0,0,0,0,0,0,0,0,0,0,0,0,0,0,0,0,0,0,0,0,0,0,0,0,0,0,0,0,0,0,0,0,0,0,0,0,0,0,0,0,0,0,0,0,0,0,0,0,0,0,0,0,0,0,0,0,0,0,0,0,0,0,0,8267,8210,8157,8112,8067,8021,7971,7909,7831,7739,7636,7525,7414,7310,7221,7141,7082,7038,7007,6990,6980,6980,6987,6998,7010,7020,7035,7035,7024,7003,6973,6924,6874,6833,6797,6765,6734,6706,6702,0,0,2675,2678,2677,2670,2655,2633,2606,2577,2548,2523,2512,2502,2497,2498,2506,2519,2536,2556,2576,2595,2645,2713,0,2765,2750,2786,2834,2871,2900,2923,2942,2957,2968,2984,0,0,0,4669,0,10857,10936,10977,0,0,4773,4770,4769,4770,4772,11122,11088,10736,10525,10217,8843,8242,8714,7638,7540,0,5610,5545,5514,5517,5535,5554,5574,0,0,0,0,0,0,0,0,0,0,0,3199,0,0,0,0,0,0,0,0,0,0,0,0,0,0,0,0,0,0,0,0,0,0,0,0,0,0,0,0,0,0,0,0,0,0,0,0,0,0,0,0,0,0,0,0,0,0,645,645,644,644,644,644,644,644,644,644,645,645,645,645,645,645,645,645,645,644,644,644,644,643,643,643,643,644,644,644,644,645,645,645,645,645,645,645,645,645,644,644,644,644,643,643,643,643,643,643,642,643,643,643,644,644,644,645,645,645,645,645,645,645,645,645,645,645,645,645,645,644,644,0,0,0,0,0,0,0,0,0,0,0,0,0,0,0,0,0,0,0,0,0,0,0,0,0,0,0,0,0,0,0,0,0,0,0,0,0,0,0,0,0,0,0,0,0,65508,65487,65468,65417,65320,65146,64837,64302,63401,61945,59729,56644,52864,48836,44978,41412,38079,34892,31838,28880,26075,23415,20928,18430,15804,14176,12909,11738,10824,10200,9704,9321,9020,8806,8650,8535,8449,8377,8305,8225,8130,8018,7887,7721,7610,7448,7306,7237,7179,7125,7071,7020,6974,6932,6887,6854,6829,6802,6784,6761,6744,6838,65465,65406,65292,65092,64747,64118,63087,61443,58937,54885,50327,44899,39264,35517,32486,29681,28369,27508,25883,25207,24673,24720,24998,26581,29573,30189,31275,31992,32520,32518,32631,33028,32731,32445,32005,31389,30601,29872,29045,28008,26875,25671,24376,23134,21872,20442,18212,16933,16008,15364,14907,14609,14479,14480,14644,15354,15554,15621,15589,15489,15344,15156,14933,14678,14398,14096,13784,13463,13148,12848,12575,12340,12141,11976,11826,11688,11455,11342,11233,11186,11037,10901,10772,10646,10529,10421,10322,10226,10131,10033,9929,9821,9714,9613,9521,9436,9358,9282,9205,9125,9040,8951,8860,8765,8668,8569,8468,8368,8270,8178,8091,8010,7932,7856,7782,7724,7602,7541,7484,7434,7389,7346,7547,7516,7478,7446,6985,6918,6903,6888,6905,6890,6890
0,0,0,0,0,0,0,22565,21960,21750,21576,21353,21246,18271,16479,17573,15468,16587,15962,15802,14696,15529,0,19803,15488,17994,14730,14058,16819,11081,10193,9814,9511,9291,9138,9044,9000,8999,9037,9107,9202,9316,9442,9578,9722,9874,10034,10195,10346,10477,10582,10661,10717,10754,10778,10794,10817,10798,0,0,0,0,0,0,0,0,0,0,0,0,0,0,0,0,0,0,0,0,0,39367,36452,34712,29531,30372,30308,30514,31055,31900,32932,34004,35181,37585,0,0,0,0,0,0,0,0,0,0,0,0,0,0,0,0,0,0,0,0,0,0,0,0,0,0,0,0,0,0,0,0,0,0,0,0,0,0,0,0,0,0,0,0,0,0,0,0,0,0,0,0,0,0,0,0,0,0,0,0,0,0,0,0,0,0,0,0,0,8255,8202,8135,8088,8042,7997,7950,7893,7820,7738,7642,7537,7430,7328,7239,7151,7089,7042,7006,6989,6975,6975,6981,6993,7004,7013,7016,7009,7027,7008,6984,6963,0,0,0,0,2537,2558,2571,2594,2610,2636,2650,2651,2644,2629,2608,2581,2552,2524,2498,2481,2467,2458,2456,2460,2470,2484,2501,2519,2535,2539,0,2561,2573,2707,2746,2784,2824,2858,2888,2913,2933,2948,2974,0,4649,4661,4672,4695,4715,4735,4750,4760,4765,4766,4767,4767,4769,4774,4786,4795,10567,10352,8931,8364,7788,8023,6322,6078,5871,5632,5559,5525,5520,5535,5551,5573,0,0,0,0,0,0,0,0,0,0,3154,3156,0,0,0,0,0,0,0,0,0,0,0,0,0,0,0,0,0,0,0,0,0,0,0,0,0,0,0,0,0,0,0,0,0,0,0,0,0,0,0,0,0,0,0,0,0,645,645,645,644,644,644,644,644,644,644,644,644,644,645,645,645,645,644,644,644,644,644,643,643,643,643,643,643,643,643,644,644,644,644,644,644,644,644,644,644,644,644,644,643,643,643,643,643,642,642,642,642,642,642,643,643,643,644,644,644,644,644,644,644,644,644,644,644,644,644,644,644,644,0,0,0,0,0,0,0,0,0,0,0,0,0,0,0,0,0,0,0,0,0,0,0,0,0,0,0,0,0,0,0,0,0,0,0,0,0,0,0,0,0,0,0,0,0,0,0,65477,65467,65414,65313,65133,64813,64257,63320,61805,59497,56274,52313,48114,44152,40559,37265,34174,31249,28455,25812,23313,20978,18705,16436,14795,13440,12034,10958,10300,9774,9376,9074,8857,8697,8578,8483,8399,8314,8219,8112,7994,7864,7717,7602,7464,7341,7265,7200,7142,7086,7033,6985,6942,6899,6866,6839,6812,6791,6770,6754,6743,6731,6723,65193,65078,64734,64079,63042,61429,59000,52407,47682,40410,33885,30437,27585,27489,26397,23327,23680,22951,22278,22332,22467,17713,17586,0,8771,8756,13374,0,29168,33685,32263,31992,31568,30926,30047,29340,28516,27373,26129,24832,23450,22226,21031,19585,16787,15515,14671,14145,13789,13570,13513,13575,13831,15032,15358,15497,15507,15431,15295,15112,14891,14640,14368,14075,13773,13458,13143,12840,12562,12320,12117,11949,11803,11562,11439,11324,11215,11154,10983,10842,10715,10589,10471,10359,10255,10151,10053,9951,9843,9733,9624,9522,9427,9339,9256,9176,9097,9015,8931,8845,8757,8668,8579,8490,8400,8309,8220,8134,8052,7974,7898,7824,7748,7679,7569,7487,7416,7355,7303,7257,7215,7219,7402,7356,6940,6996,6857,6839,6819,6845,6841
0,0,0,0,0,0,22851,22620,22184,22002,21815,21642,21452,20992,28376,29225,29866,30169,15884,15410,15528,15281,22951,16788,16365,18856,15139,17205,14435,16708,10538,10056,9682,9419,9234,9116,9053,9037,9062,9120,9206,9314,9436,9570,9715,9869,10031,10195,10349,10483,10591,10672,10729,10764,10784,10794,10819,0,0,0,0,0,0,0,0,0,0,0,0,0,0,0,0,0,0,0,0,0,0,37967,34400,28953,29379,29218,29213,29492,30107,31013,32078,33139,34583,35704,0,0,0,0,0,0,0,0,0,0,0,0,0,0,0,0,0,0,0,0,0,0,0,0,0,0,0,0,0,0,0,0,0,0,0,0,0,0,0,0,0,0,0,0,0,0,0,0,0,0,0,0,0,0,0,0,0,0,0,0,0,0,0,0,0,0,0,2464,0,0,0,0,0,0,0,0,0,7684,7716,7640,7513,7402,7288,7199,0,0,0,6933,6966,6970,6970,0,2522,2522,2520,2518,2516,0,0,0,0,0,0,2502,2508,2522,2533,2546,2570,2585,2604,2614,2615,2608,2593,2572,2546,2517,2488,2462,2441,2424,2413,2408,2410,2418,2431,2447,2464,2479,2474,2460,2498,2541,2657,2703,2729,2770,2810,2845,2875,2899,2917,2962,0,4646,4657,4670,4691,4712,4731,4747,4757,4761,4763,4763,4764,4768,4775,4787,4799,4826,0,8790,7972,7713,7429,6109,5974,5797,5624,5550,5521,5515,5532,5545,0,0,0,0,0,0,0,0,0,0,0,0,0,0,0,0,0,0,0,0,0,0,0,0,0,0,0,0,0,0,0,0,0,0,0,0,0,0,0,0,0,0,0,0,0,0,0,0,0,0,0,0,0,0,0,0,0,0,645,645,645,644,644,644,644,644,644,644,644,644,644,644,644,644,644,644,644,644,643,643,643,643,643,643,643,643,643,643,643,643,644,644,644,644,644,644,644,644,643,643,643,643,643,643,642,642,642,642,642,642,642,642,642,643,643,643,644,644,644,644,644,644,643,643,643,643,643,644,644,644,644,643,0,0,0,0,0,0,0,0,0,0,0,0,0,0,0,0,0,0,0,0,0,0,0,0,0,0,0,0,0,0,0,0,0,0,0,0,0,0,0,0,0,0,0,0,0,0,65493,65467,65410,65307,65120,64790,64216,63247,61679,59288,55943,51823,47472,43417,39806,36561,33578,30795,28170,25694,23356,21167,19072,17045,15431,14049,12321,11047,10413,9869,9461,9156,8935,8771,8646,8542,8446,8347,8238,8120,7994,7863,7727,7610,7487,7378,7297,7233,7173,7118,7063,7013,6969,6926,6890,6860,6831,6807,6784,6766,6752,6739,6732,6666,0,0,0,0,59445,55831,0,0,0,34486,29141,26676,26157,25155,22898,22364,21485,20732,19277,17596,21048,8681,8657,8640,8595,8443,8352,8283,8206,8146,8099,8074,30285,29572,28990,28171,26854,25454,24048,22567,21424,20402,18540,15261,14015,13259,12864,12607,12451,12446,12527,12833,14757,15204,15398,15442,15384,15258,15079,14861,14613,14346,14056,13763,13452,13139,12834,12553,12309,12104,11934,11699,11554,11429,11313,11206,11131,10921,10772,10648,10524,10405,10286,10173,10056,9950,9841,9727,9617,9509,9410,9317,9231,9149,9068,8988,8907,8825,8741,8657,8572,8489,8406,8323,8239,8154,8073,7994,7919,7847,7775,7703,7632,7539,7463,7394,7334,7281,7231,7182,7129,7078,7032,6988,6942,6855,6833,6812,6790,6786
0,0,0,0,0,0,22847,22470,22267,22102,21942,21808,21688,21276,21402,21536,21713,29563,29043,28339,27265,25909,18377,17773,18153,19446,16988,15879,14857,17339,10785,10184,9760,9478,9278,9148,9076,9052,9069,9122,9202,9306,9427,9560,9706,9862,10026,10192,10350,10488,10601,10686,10746,10784,10803,10810,10740,0,0,0,0,0,0,0,0,0,0,0,0,0,0,0,0,0,0,0,0,0,0,34598,29193,28255,27821,28180,28254,28612,29298,30244,31299,32292,31994,0,0,0,0,0,0,0,0,0,0,0,0,0,0,0,0,0,0,0,0,0,0,0,0,0,0,0,0,0,0,0,0,0,0,0,0,0,0,0,0,0,0,0,0,0,0,0,0,0,0,0,0,0,0,0,0,0,0,0,0,0,0,0,0,0,0,2434,2385,2388,2391,2393,2393,0,0,0,0,0,2324,2328,2331,2339,2349,2362,2368,0,0,0,0,0,0,2496,2499,2504,2511,2511,2510,2507,2504,2492,2486,2481,2477,2474,2475,2485,2490,2499,2509,2520,2537,2551,2565,2572,2571,2564,2548,2528,2502,2474,2446,2419,2397,2378,2366,2361,2361,2369,2381,2397,2415,2432,2439,2441,2470,2510,2553,2601,2669,2713,2756,2795,2828,2855,2875,2950,0,4641,4652,4667,4687,4707,4727,4742,4751,4756,4757,4757,4759,4763,4772,4784,4800,4833,4906,5086,0,0,7162,5819,5831,5712,5585,5523,5508,5506,5517,0,0,0,3187,3182,3180,3182,0,0,0,0,0,0,0,0,0,0,0,0,0,0,0,0,0,0,0,0,0,0,0,0,0,0,0,0,0,0,0,0,0,0,0,0,0,0,0,0,0,0,0,0,0,0,0,0,0,0,0,0,0,645,645,645,644,644,644,644,644,644,644,644,644,644,644,644,644,644,643,643,643,643,643,642,642,642,643,643,643,643,643,643,643,643,643,643,643,643,643,643,643,643,643,643,643,642,642,642,642,642,642,642,642,642,642,642,643,643,643,643,643,643,643,643,643,643,643,643,643,643,643,643,643,643,0,0,0,0,0,0,0,0,0,0,0,0,0,0,0,0,0,0,0,0,0,0,0,0,0,0,0,0,0,0,0,0,0,0,0,0,0,0,0,0,0,0,0,0,0,65510,65496,65466,65408,65302,65112,64774,64186,63193,61585,59128,55686,51434,46947,42801,39156,35969,33092,30442,27961,25618,23395,21304,19324,17460,15892,14524,11633,11367,10569,10004,9582,9270,9042,8871,8737,8623,8514,8401,8279,8150,8016,7880,7747,7630,7515,7415,7336,7274,7217,7163,7109,7057,7011,6967,6926,6890,6857,6827,6800,6778,6761,6748,6740,6741,6765,6733,6652,6709,0,0,0,0,0,0,0,26477,24775,24699,20758,8332,10229,9264,9663,8982,8801,8629,8530,8471,8402,8284,8203,8135,8068,8014,7968,7923,7788,7732,7704,0,25935,24907,23351,21708,20665,19768,17767,11632,12660,11922,11636,11459,11335,11348,11388,11574,0,0,0,0,0,4574,4552,0,0,0,0,0,0,0,0,0,0,0,4048,0,0,3942,3907,0,12075,10857,10695,10582,10463,10343,10216,10091,9956,9841,9725,9605,9493,9385,9290,9202,9118,9036,8958,8880,8802,8723,8643,8562,8482,8403,8324,8245,8164,8083,8003,7927,7855,7786,7720,7651,7583,7503,7432,7368,7309,7256,7204,7151,7094,7039,6987,6933,6892,6819,6794,6773,6750,6784
0,0,0,0,0,0,22624,22431,22219,22055,21907,21797,21726,21765,21530,21712,21929,22823,21485,21329,20988,20539,19914,22320,19334,20554,18011,16025,15085,17902,11235,10172,9727,9458,9266,9139,9068,9044,9061,9112,9192,9295,9415,9550,9697,9855,10021,10190,10350,10493,10611,10703,10770,10812,10835,10844,10823,0,0,0,0,0,0,0,0,0,0,0,0,0,0,0,0,0,0,0,0,0,33579,29072,28008,27364,26853,27259,27450,27914,28694,29707,30782,31789,32197,0,0,0,0,0,0,0,0,0,0,0,0,0,0,0,0,0,0,0,0,0,0,0,0,0,0,0,0,0,0,0,0,0,0,0,0,0,0,0,0,0,0,0,0,0,0,0,0,0,0,0,0,0,0,0,0,0,0,0,0,0,0,0,0,0,2368,2373,2372,2372,2372,2370,2367,2350,0,2303,2281,2297,2307,2305,2316,2327,2340,2354,2364,2373,2382,2385,0,2443,2455,2469,2484,2490,2495,2496,2495,2492,2487,2479,2472,2466,2461,2457,2456,2461,2464,2470,2477,2485,2497,2508,2519,2524,2521,2513,2497,2478,2454,2427,2399,2373,2351,2335,2324,2318,2318,2325,2337,2354,2373,2392,2406,2419,2445,2479,2516,2555,2607,2658,2702,2742,2775,2802,2820,0,4606,4636,4647,4663,4682,4702,4721,4736,4745,4749,4750,4750,4751,4755,4763,4772,4788,4831,4923,4984,5086,5210,5396,5542,5720,5647,5549,5496,0,3504,3465,3422,0,3229,3202,3193,3189,3192,3210,0,0,0,0,0,0,0,0,0,0,0,0,0,0,0,0,0,0,0,0,0,0,0,0,0,0,0,0,0,0,0,0,0,0,0,0,0,0,0,0,0,0,0,0,0,0,0,0,0,0,0,645,645,645,645,644,644,644,644,643,643,643,643,643,643,643,643,643,643,643,643,643,642,642,642,642,642,642,643,643,643,643,643,643,643,643,643,643,643,643,643,643,643,643,642,642,642,642,642,642,642,642,642,642,642,642,642,642,643,643,643,643,643,643,643,643,643,643,643,643,643,643,643,643,643,0,0,0,0,0,0,0,0,0,0,0,0,0,0,0,0,0,0,0,0,0,0,0,0,0,0,0,0,0,0,0,0,0,0,0,0,0,0,0,0,0,0,0,0,65521,65514,65499,65466,65408,65302,65110,64770,64178,63177,61551,59060,55557,51200,46585,42332,38655,35492,32698,30157,27782,25517,23341,21275,19328,17543,15999,14631,13607,12190,10742,10164,9729,9407,9169,8987,8841,8715,8593,8467,8333,8194,8052,7910,7775,7655,7545,7451,7376,7319,7267,7219,7165,7112,7066,7017,6970,6926,6885,6848,6815,6789,6768,6752,6742,6743,6763,6729,6891,6962,7030,7084,7128,7048,7232,7151,0,0,0,0,8030,8189,8267,9216,8820,8660,8528,8404,8313,8242,8166,8070,7999,7937,7882,7840,7803,7767,7685,7643,7631,7583,7600,7644,7742,21088,20183,9208,0,10120,10744,10732,10546,10440,10339,10254,10251,10399,0,0,0,4630,4577,4556,4541,4509,4484,0,0,0,0,4188,4169,4145,4129,4101,4071,4038,4003,3976,3959,3904,3838,11357,10642,10536,10421,10302,10164,10026,9868,9744,9621,9490,9375,9264,9172,9086,9005,8925,8849,8775,8700,8625,8549,8471,8394,8318,8242,8165,8087,8007,7929,7854,7785,7720,7658,7595,7531,7460,7394,7333,7277,7224,7171,7116,7059,7002,6948,6896,6847,6801,6775,6753,6724,6713
